36215.10288604242 42736.662343154596 31.5 -0.9929340037026223 -0.11866787387949955 0.0
36215.10288604242 42736.662343154596 39.0 -0.9929340037026223 -0.11866787387949955 0.0
36212.79701497396 42747.30529222965 37.5 -0.6581326041606113 -0.7529020356864313 -0.0
36212.79701497396 42747.30529222965 28.5 -0.6581326041606113 -0.7529020356864313 -0.0
36212.79701497396 42747.30529222965 19.5 -0.6581326041606113 -0.7529020356864313 -0.0
36212.79701497396 42747.30529222965 10.500000000000004 -0.6581326041606113 -0.7529020356864313 -0.0
36212.79701497396 42747.30529222965 3.0 -0.6581326041606113 -0.7529020356864313 -0.0
36210.674402420664 42747.20662500119 4.5 0.7502670656156296 -0.6611348805293157 0.0
36210.674402420664 42747.20662500119 13.5 0.7502670656156296 -0.6611348805293157 0.0
36210.674402420664 42747.20662500119 22.5 0.7502670656156296 -0.6611348805293157 0.0
36210.674402420664 42747.20662500119 31.5 0.7502670656156296 -0.6611348805293157 0.0
36210.674402420664 42747.206625001185 39.0 0.7502670656156296 -0.6611348805293157 0.0
36207.23822064937 42748.233953782365 37.5 -0.6588700638885829 -0.7522567639519466 -0.0
36207.23822064937 42748.233953782365 28.5 -0.6588700638885829 -0.7522567639519466 -0.0
36207.23822064937 42748.233953782365 19.5 -0.6588700638885829 -0.7522567639519466 -0.0
36207.23822064937 42748.233953782365 10.500000000000004 -0.6588700638885829 -0.7522567639519466 -0.0
36207.23822064937 42748.233953782365 3.0 -0.6588700638885829 -0.7522567639519466 -0.0
36214.96318548021 42761.85971851792 4.5 -0.7483388995401229 0.6633165846223641 7.259760465697076e-18
36214.96318548021 42761.85971851792 13.5 -0.7483388995401229 0.6633165846223641 7.259760465697076e-18
36214.96318548021 42761.85971851792 22.5 -0.7483388995401229 0.6633165846223641 7.259760465697076e-18
36214.96318548021 42761.85971851792 31.5 -0.7483388995401229 0.6633165846223641 7.259760465697076e-18
36214.96318548021 42761.85971851792 39.0 -0.7483388995401229 0.6633165846223641 7.259760465697076e-18
36208.993336218606 42755.12466842205 4.5 -0.7483388995401229 0.6633165846223641 7.259760465697076e-18
36208.993336218606 42755.12466842205 13.5 -0.7483388995401229 0.6633165846223641 7.259760465697076e-18
36208.993336218606 42755.12466842205 22.5 -0.7483388995401229 0.6633165846223641 7.259760465697076e-18
36208.993336218606 42755.12466842205 31.5 -0.7483388995401229 0.6633165846223641 7.259760465697076e-18
36208.993336218606 42755.12466842205 39.0 -0.7483388995401229 0.6633165846223641 7.259760465697076e-18
36205.4014663994 42751.07240141999 4.5 -0.7483388995401229 0.6633165846223641 7.259760465697076e-18
36205.4014663994 42751.07240141999 13.5 -0.7483388995401229 0.6633165846223641 7.259760465697076e-18
36205.4014663994 42751.07240141999 22.5 -0.7483388995401229 0.6633165846223641 7.259760465697076e-18
36205.4014663994 42751.07240141999 31.5 -0.7483388995401229 0.6633165846223641 7.259760465697076e-18
36205.4014663994 42751.07240141999 39.0 -0.7483388995401229 0.6633165846223641 7.259760465697076e-18
36353.55399991096 42815.95682171729 4.5 -0.8317771510300634 0.5551096927854089 3.604811817386194e-18
36353.55399991096 42815.95682171729 13.5 -0.8317771510300634 0.5551096927854089 3.604811817386194e-18
36353.55399991096 42815.95682171729 22.5 -0.8317771510300634 0.5551096927854089 3.604811817386194e-18
36353.55399991096 42815.95682171729 31.5 -0.8317771510300634 0.5551096927854089 3.604811817386194e-18
36353.55399991096 42815.95682171729 39.0 -0.8317771510300634 0.5551096927854089 3.604811817386194e-18
36350.74971706097 42811.75488031728 4.5 -0.8317771510300634 0.5551096927854089 3.604811817386194e-18
36350.74971706097 42811.75488031728 13.5 -0.8317771510300634 0.5551096927854089 3.604811817386194e-18
36350.74971706097 42811.75488031728 22.5 -0.8317771510300634 0.5551096927854089 3.604811817386194e-18
36350.74971706097 42811.75488031728 31.5 -0.8317771510300634 0.5551096927854089 3.604811817386194e-18
36350.74971706097 42811.75488031728 39.0 -0.8317771510300634 0.5551096927854089 3.604811817386194e-18
36352.29740453287 42822.16218851628 37.5 -0.5502823339606188 -0.8349786541767724 -8.75793742316353e-19
36352.29740453287 42822.16218851628 28.5 -0.5502823339606188 -0.8349786541767724 -8.75793742316353e-19
36352.29740453287 42822.16218851628 19.5 -0.5502823339606188 -0.8349786541767724 -8.75793742316353e-19
36352.29740453287 42822.16218851628 10.5 -0.5502823339606188 -0.8349786541767724 -8.75793742316353e-19
36352.29740453287 42822.16218851628 3.0 -0.5502823339606188 -0.8349786541767724 -8.75793742316353e-19
36348.41342663287 42824.72187601628 37.5 -0.5502823339606188 -0.8349786541767724 -8.75793742316353e-19
36348.41342663287 42824.72187601628 28.5 -0.5502823339606188 -0.8349786541767724 -8.75793742316353e-19
36348.41342663287 42824.72187601628 19.5 -0.5502823339606188 -0.8349786541767724 -8.75793742316353e-19
36348.41342663287 42824.72187601628 10.5 -0.5502823339606188 -0.8349786541767724 -8.75793742316353e-19
36348.41342663287 42824.72187601628 3.0 -0.5502823339606188 -0.8349786541767724 -8.75793742316353e-19
36353.2533009681 42832.266430293086 4.5 -0.8318213868785003 0.5550434040068654 0.0
36353.2533009681 42832.266430293086 13.5 -0.8318213868785003 0.5550434040068654 0.0
36353.2533009681 42832.266430293086 22.5 -0.8318213868785003 0.5550434040068654 0.0
36353.2533009681 42832.266430293086 31.5 -0.8318213868785003 0.5550434040068654 0.0
36353.2533009681 42832.266430293086 39.0 -0.8318213868785003 0.5550434040068654 0.0
36349.51982146811 42826.67121364309 4.5 -0.8318213868785003 0.5550434040068654 0.0
36349.51982146811 42826.67121364309 13.5 -0.8318213868785003 0.5550434040068654 0.0
36349.51982146811 42826.67121364309 22.5 -0.8318213868785003 0.5550434040068654 0.0
36349.51982146811 42826.67121364309 31.5 -0.8318213868785003 0.5550434040068654 0.0
36349.51982146811 42826.67121364309 39.0 -0.8318213868785003 0.5550434040068654 0.0
36354.034418666575 42837.123524636816 37.5 -0.548468343529845 -0.8361713198535501 -0.0
36354.034418666575 42837.123524636816 28.5 -0.548468343529845 -0.8361713198535501 -0.0
36354.034418666575 42837.123524636816 19.5 -0.548468343529845 -0.8361713198535501 -0.0
36354.034418666575 42837.123524636816 10.500000000000004 -0.548468343529845 -0.8361713198535501 -0.0
36354.034418666575 42837.123524636816 3.0 -0.548468343529845 -0.8361713198535501 -0.0
36354.93148978781 42842.18635160394 4.5 -0.8315364661601107 0.5554701661169168 0.0
36354.93148978781 42842.18635160394 13.5 -0.8315364661601107 0.5554701661169168 0.0
36354.93148978781 42842.18635160394 22.5 -0.8315364661601107 0.5554701661169168 0.0
36354.93148978781 42842.18635160394 31.5 -0.8315364661601107 0.5554701661169168 0.0
36354.93148978781 42842.18635160394 39.0 -0.8315364661601107 0.5554701661169168 0.0
36352.37202543782 42838.35484440393 4.5 -0.8315364661601107 0.5554701661169168 0.0
36352.37202543782 42838.35484440393 13.5 -0.8315364661601107 0.5554701661169168 0.0
36352.37202543782 42838.35484440393 22.5 -0.8315364661601107 0.5554701661169168 0.0
36352.37202543782 42838.35484440393 31.5 -0.8315364661601107 0.5554701661169168 0.0
36352.37202543782 42838.35484440393 39.0 -0.8315364661601107 0.5554701661169168 0.0
36361.20284074465 42843.45557276453 37.5 0.5501087035649601 0.8350930572469627 0.0
36361.20284074465 42843.45557276453 28.5 0.5501087035649601 0.8350930572469627 0.0
36361.20284074465 42843.45557276453 19.5 0.5501087035649601 0.8350930572469627 0.0
36361.20284074465 42843.45557276453 10.5 0.5501087035649601 0.8350930572469627 0.0
36361.20284074465 42843.45557276453 3.0 0.5501087035649601 0.8350930572469627 0.0
36368.71867825987 42838.504594432445 37.5 0.5501087035649601 0.8350930572469627 0.0
36368.71867825987 42838.504594432445 28.5 0.5501087035649601 0.8350930572469627 0.0
36368.71867825987 42838.504594432445 19.5 0.5501087035649601 0.8350930572469627 0.0
36368.71867825987 42838.504594432445 10.5 0.5501087035649601 0.8350930572469627 0.0
36368.71867825987 42838.504594432445 3.0 0.5501087035649601 0.8350930572469627 0.0
36374.12538895226 42834.942981048494 37.5 0.5501087035649601 0.8350930572469627 0.0
36374.12538895226 42834.942981048494 28.5 0.5501087035649601 0.8350930572469627 0.0
36374.12538895226 42834.942981048494 19.5 0.5501087035649601 0.8350930572469627 0.0
36374.12538895226 42834.942981048494 10.500000000000002 0.5501087035649601 0.8350930572469627 0.0
36374.12538895226 42834.942981048494 3.0 0.5501087035649601 0.8350930572469627 0.0
36372.06638743282 42828.285802084945 4.5 0.8316465861696904 -0.5553052815454753 0.0
36372.06638743282 42828.285802084945 13.5 0.8316465861696904 -0.5553052815454753 0.0
36372.06638743282 42828.285802084945 22.5 0.8316465861696904 -0.5553052815454753 0.0
36372.06638743282 42828.285802084945 31.5 0.8316465861696904 -0.5553052815454753 0.0
36372.06638743282 42828.285802084945 39.0 0.8316465861696904 -0.5553052815454753 0.0
36375.17112873282 42832.93558228494 4.5 0.8316465861696904 -0.5553052815454753 0.0
36375.17112873282 42832.93558228494 13.5 0.8316465861696904 -0.5553052815454753 0.0
36375.17112873282 42832.93558228494 22.5 0.8316465861696904 -0.5553052815454753 0.0
36375.17112873282 42832.93558228494 31.5 0.8316465861696904 -0.5553052815454753 0.0
36375.17112873282 42832.93558228494 39.0 0.8316465861696904 -0.5553052815454753 0.0
36366.68244731153 42826.431334531226 37.5 -0.5499738473088334 -0.835181876764768 -0.0
36366.68244731153 42826.431334531226 28.5 -0.5499738473088334 -0.835181876764768 -0.0
36366.68244731153 42826.431334531226 19.5 -0.5499738473088334 -0.835181876764768 -0.0
36366.68244731153 42826.431334531226 10.5 -0.5499738473088334 -0.835181876764768 -0.0
36366.68244731153 42826.431334531226 3.0 -0.5499738473088334 -0.835181876764768 -0.0
36364.85570393914 42819.45528094418 4.5 0.9933465350899039 0.11516362804671569 0.0
36364.85570393914 42819.45528094418 13.5 0.9933465350899039 0.11516362804671569 0.0
36364.85570393914 42819.45528094418 22.5 0.9933465350899039 0.11516362804671569 0.0
36364.85570393914 42819.45528094418 31.5 0.9933465350899039 0.11516362804671569 0.0
36364.85570393914 42819.45528094418 39.0 0.9933465350899039 0.11516362804671569 0.0
36364.08204898914 42826.12845959418 4.5 0.9933465350899039 0.11516362804671569 0.0
36364.08204898914 42826.12845959418 13.5 0.9933465350899039 0.11516362804671569 0.0
36364.08204898914 42826.12845959418 22.5 0.9933465350899039 0.11516362804671569 0.0
36364.08204898914 42826.12845959418 31.5 0.9933465350899039 0.11516362804671569 0.0
36364.08204898914 42826.12845959418 39.0 0.9933465350899039 0.11516362804671569 0.0
36367.82056443903 42818.68290658762 4.5 -0.8317710980238806 0.5551187625113638 0.0
36367.82056443903 42818.68290658762 13.5 -0.8317710980238806 0.5551187625113638 0.0
36367.82056443903 42818.68290658762 22.5 -0.8317710980238806 0.5551187625113638 0.0
36367.82056443903 42818.68290658762 31.5 -0.8317710980238806 0.5551187625113638 0.0
36367.82056443903 42818.68290658762 39.0 -0.8317710980238806 0.5551187625113638 0.0
36374.05687785928 42819.90304588427 37.5 0.5502100618952305 0.8350262796997749 0.0
36374.05687785928 42819.90304588427 28.5 0.5502100618952305 0.8350262796997749 0.0
36374.05687785928 42819.90304588427 19.5 0.5502100618952305 0.8350262796997749 0.0
36374.05687785928 42819.90304588427 10.5 0.5502100618952305 0.8350262796997749 0.0
36374.05687785928 42819.90304588427 3.0 0.5502100618952305 0.8350262796997749 0.0
36378.33593115927 42817.08352003426 37.5 0.5502100618952305 0.8350262796997749 0.0
36378.33593115927 42817.08352003426 28.5 0.5502100618952305 0.8350262796997749 0.0
36378.33593115927 42817.08352003426 19.5 0.5502100618952305 0.8350262796997749 0.0
36378.33593115927 42817.08352003426 10.5 0.5502100618952305 0.8350262796997749 0.0
36378.335931159265 42817.08352003426 3.0 0.5502100618952305 0.8350262796997749 0.0
36370.163282911184 42803.69445433968 4.5 0.8317798657627442 -0.5551056250045672 0.0
36370.163282911184 42803.69445433968 13.5 0.8317798657627442 -0.5551056250045672 0.0
36370.163282911184 42803.69445433968 22.5 0.8317798657627442 -0.5551056250045672 0.0
36370.163282911184 42803.69445433968 31.5 0.8317798657627442 -0.5551056250045672 0.0
36370.163282911184 42803.69445433968 39.0 0.8317798657627442 -0.5551056250045672 0.0
36375.159233536215 42811.18047313155 4.5 0.8317798657627442 -0.5551056250045672 0.0
36375.159233536215 42811.18047313155 13.5 0.8317798657627442 -0.5551056250045672 0.0
36375.159233536215 42811.18047313155 22.5 0.8317798657627442 -0.5551056250045672 0.0
36375.159233536215 42811.18047313155 31.5 0.8317798657627442 -0.5551056250045672 0.0
36375.159233536215 42811.18047313155 39.0 0.8317798657627442 -0.5551056250045672 0.0
36378.2586953737 42815.824760335614 4.5 0.8317798657627442 -0.5551056250045672 0.0
36378.2586953737 42815.824760335614 13.5 0.8317798657627442 -0.5551056250045672 0.0
36378.2586953737 42815.824760335614 22.5 0.8317798657627442 -0.5551056250045672 0.0
36378.2586953737 42815.824760335614 31.5 0.8317798657627442 -0.5551056250045672 0.0
36378.2586953737 42815.824760335614 39.0 0.8317798657627442 -0.5551056250045672 0.0
36363.893531622656 42802.424075761046 37.5 -0.5500957282451308 -0.8351016044568825 -0.0
36363.893531622656 42802.424075761046 28.5 -0.5500957282451308 -0.8351016044568825 -0.0
36363.893531622656 42802.424075761046 19.5 -0.5500957282451308 -0.8351016044568825 -0.0
36363.893531622656 42802.424075761046 10.5 -0.5500957282451308 -0.8351016044568825 -0.0
36363.893531622656 42802.424075761046 3.0 -0.5500957282451308 -0.8351016044568825 -0.0
36356.377617182545 42807.37493731526 37.5 -0.5500957282451308 -0.8351016044568825 -0.0
36356.377617182545 42807.37493731526 28.5 -0.5500957282451308 -0.8351016044568825 -0.0
36356.377617182545 42807.37493731526 19.5 -0.5500957282451308 -0.8351016044568825 -0.0
36356.377617182545 42807.37493731526 10.5 -0.5500957282451308 -0.8351016044568825 -0.0
36356.377617182545 42807.37493731526 3.0 -0.5500957282451308 -0.8351016044568825 -0.0
36351.5329523026 42810.56620103815 37.5 -0.5500957282451308 -0.8351016044568825 -0.0
36351.5329523026 42810.56620103815 28.5 -0.5500957282451308 -0.8351016044568825 -0.0
36351.5329523026 42810.56620103815 19.5 -0.5500957282451308 -0.8351016044568825 -0.0
36351.5329523026 42810.56620103815 10.5 -0.5500957282451308 -0.8351016044568825 -0.0
36351.5329523026 42810.56620103815 3.0 -0.5500957282451308 -0.8351016044568825 -0.0
36327.09864560425 42793.71368610688 37.5 0.5780169423904183 0.8160247632943696 0.0
36327.09864560425 42793.71368610688 28.5 0.5780169423904183 0.8160247632943696 0.0
36327.09864560425 42793.71368610688 19.5 0.5780169423904183 0.8160247632943696 0.0
36327.09864560425 42793.71368610688 10.5 0.5780169423904183 0.8160247632943696 0.0
36327.09864560425 42793.71368610688 3.0 0.5780169423904183 0.8160247632943696 0.0
36331.227465454256 42790.789108406876 37.5 0.5780169423904183 0.8160247632943696 0.0
36331.227465454256 42790.789108406876 28.5 0.5780169423904183 0.8160247632943696 0.0
36331.227465454256 42790.789108406876 19.5 0.5780169423904183 0.8160247632943696 0.0
36331.227465454256 42790.789108406876 10.5 0.5780169423904183 0.8160247632943696 0.0
36331.227465454256 42790.789108406876 3.0 0.5780169423904183 0.8160247632943696 0.0
36334.466160394804 42794.35961171679 4.5 -0.812469648471889 0.5830034908231383 -1.1659918160876289e-18
36334.466160394804 42794.35961171679 13.5 -0.812469648471889 0.5830034908231383 -1.1659918160876289e-18
36334.466160394804 42794.35961171679 22.5 -0.812469648471889 0.5830034908231383 -1.1659918160876289e-18
36334.466160394804 42794.35961171679 31.5 -0.812469648471889 0.5830034908231383 -1.1659918160876289e-18
36334.466160394804 42794.35961171679 39.0 -0.812469648471889 0.5830034908231383 -1.1659918160876289e-18
36331.756456844814 42790.58338751678 4.5 -0.812469648471889 0.5830034908231383 -1.1659918160876289e-18
36331.756456844814 42790.58338751678 13.5 -0.812469648471889 0.5830034908231383 -1.1659918160876289e-18
36331.756456844814 42790.58338751678 22.5 -0.812469648471889 0.5830034908231383 -1.1659918160876289e-18
36331.756456844814 42790.58338751678 31.5 -0.812469648471889 0.5830034908231383 -1.1659918160876289e-18
36331.756456844814 42790.58338751678 39.0 -0.812469648471889 0.5830034908231383 -1.1659918160876289e-18
36340.77759310987 42795.419677241174 37.5 0.5774182985680782 0.8164484726415658 0.0
36340.77759310987 42795.419677241174 28.5 0.5774182985680782 0.8164484726415658 0.0
36340.77759310987 42795.419677241174 19.5 0.5774182985680782 0.8164484726415658 0.0
36340.77759310987 42795.419677241174 10.5 0.5774182985680782 0.8164484726415658 0.0
36340.77759310987 42795.419677241174 3.0 0.5774182985680782 0.8164484726415658 0.0
36346.28083145987 42791.52761224117 37.5 0.5774182985680782 0.8164484726415658 0.0
36346.28083145987 42791.52761224117 28.5 0.5774182985680782 0.8164484726415658 0.0
36346.28083145987 42791.52761224117 19.5 0.5774182985680782 0.8164484726415658 0.0
36346.28083145987 42791.52761224117 10.5 0.5774182985680782 0.8164484726415658 0.0
36346.28083145987 42791.52761224117 3.0 0.5774182985680782 0.8164484726415658 0.0
36349.28685619631 42791.8957764599 4.5 -0.8132703698462067 0.5818859901477386 0.0
36349.28685619631 42791.8957764599 13.5 -0.8132703698462067 0.5818859901477386 0.0
36349.28685619631 42791.8957764599 22.5 -0.8132703698462067 0.5818859901477386 0.0
36349.28685619631 42791.8957764599 31.5 -0.8132703698462067 0.5818859901477386 0.0
36349.28685619631 42791.8957764599 39.0 -0.8132703698462067 0.5818859901477386 0.0
36354.167063578665 42790.96616547668 37.5 0.576922802242435 0.8167986779205365 0.0
36354.167063578665 42790.96616547668 28.5 0.576922802242435 0.8167986779205365 0.0
36354.167063578665 42790.96616547668 19.5 0.576922802242435 0.8167986779205365 0.0
36354.167063578665 42790.96616547668 10.5 0.576922802242435 0.8167986779205365 0.0
36354.167063578665 42790.96616547668 3.0 0.576922802242435 0.8167986779205365 0.0
36357.93975887867 42788.30142812668 37.5 0.576922802242435 0.8167986779205365 0.0
36357.93975887867 42788.30142812668 28.5 0.576922802242435 0.8167986779205365 0.0
36357.93975887867 42788.30142812668 19.5 0.576922802242435 0.8167986779205365 0.0
36357.93975887867 42788.30142812668 10.5 0.576922802242435 0.8167986779205365 0.0
36357.93975887867 42788.30142812668 3.0 0.576922802242435 0.8167986779205365 0.0
36347.89834650867 42774.083315621356 4.5 0.8125338137663034 -0.5829140601206889 0.0
36347.89834650867 42774.083315621356 13.5 0.8125338137663034 -0.5829140601206889 0.0
36347.89834650867 42774.083315621356 22.5 0.8125338137663034 -0.5829140601206889 0.0
36347.89834650867 42774.083315621356 31.5 0.8125338137663034 -0.5829140601206889 0.0
36347.898346508664 42774.083315621356 39.0 0.8125338137663034 -0.5829140601206889 0.0
36353.14457304976 42781.39611994525 4.5 0.8125338137663034 -0.5829140601206889 0.0
36353.14457304976 42781.39611994525 13.5 0.8125338137663034 -0.5829140601206889 0.0
36353.14457304976 42781.39611994525 22.5 0.8125338137663034 -0.5829140601206889 0.0
36353.14457304976 42781.39611994525 31.5 0.8125338137663034 -0.5829140601206889 0.0
36353.14457304976 42781.39611994525 39.0 0.8125338137663034 -0.5829140601206889 0.0
36356.90345127922 42786.6356841833 4.5 0.8125338137663034 -0.5829140601206889 0.0
36356.90345127922 42786.6356841833 13.5 0.8125338137663034 -0.5829140601206889 0.0
36356.90345127922 42786.6356841833 22.5 0.8125338137663034 -0.5829140601206889 0.0
36356.90345127922 42786.6356841833 31.5 0.8125338137663034 -0.5829140601206889 0.0
36356.90345127922 42786.6356841833 39.0 0.8125338137663034 -0.5829140601206889 0.0
36341.58705597176 42773.02259159279 37.5 -0.5773364569472185 -0.816506347482757 -0.0
36341.58705597176 42773.02259159279 28.5 -0.5773364569472185 -0.816506347482757 -0.0
36341.58705597176 42773.02259159279 19.5 -0.5773364569472185 -0.816506347482757 -0.0
36341.58705597176 42773.02259159279 10.5 -0.5773364569472185 -0.816506347482757 -0.0
36341.58705597176 42773.02259159279 3.0 -0.5773364569472185 -0.816506347482757 -0.0
36337.01308002176 42776.25676494279 37.5 -0.5773364569472185 -0.816506347482757 -0.0
36337.01308002176 42776.25676494279 28.5 -0.5773364569472185 -0.816506347482757 -0.0
36337.01308002176 42776.25676494279 19.5 -0.5773364569472185 -0.816506347482757 -0.0
36337.01308002176 42776.25676494279 10.5 -0.5773364569472185 -0.816506347482757 -0.0
36337.01308002176 42776.25676494279 2.9999999999999996 -0.5773364569472185 -0.816506347482757 -0.0
36338.108530679536 42779.69347024742 4.5 -0.8127520464899491 0.5826097415306404 0.0
36338.108530679536 42779.69347024742 13.5 -0.8127520464899491 0.5826097415306404 0.0
36338.108530679536 42779.69347024742 22.5 -0.8127520464899491 0.5826097415306404 0.0
36338.108530679536 42779.69347024742 31.5 -0.8127520464899491 0.5826097415306404 0.0
36338.108530679536 42779.69347024742 39.0 -0.8127520464899491 0.5826097415306404 0.0
36335.62945067773 42782.10341778836 37.5 0.08018075738388103 -0.9967803399673105 -0.0
36335.62945067773 42782.10341778836 28.5 0.08018075738388103 -0.9967803399673105 -0.0
36335.62945067773 42782.10341778836 19.5 0.08018075738388103 -0.9967803399673105 -0.0
36335.62945067773 42782.10341778836 10.5 0.08018075738388103 -0.9967803399673105 -0.0
36335.62945067772 42782.10341778836 3.0 0.08018075738388103 -0.9967803399673105 -0.0
36328.891074727726 42781.56138453837 37.5 0.08018075738388103 -0.9967803399673105 -0.0
36328.891074727726 42781.56138453837 28.5 0.08018075738388103 -0.9967803399673105 -0.0
36328.891074727726 42781.56138453837 19.5 0.08018075738388103 -0.9967803399673105 -0.0
36328.891074727726 42781.56138453837 10.5 0.08018075738388103 -0.9967803399673105 -0.0
36328.891074727726 42781.56138453837 3.0 0.08018075738388103 -0.9967803399673105 -0.0
36330.28232674143 42778.82754692412 37.5 0.5769741426840947 0.8167624126231287 0.0
36330.28232674143 42778.82754692412 28.5 0.5769741426840947 0.8167624126231287 0.0
36330.28232674143 42778.82754692412 19.5 0.5769741426840947 0.8167624126231287 0.0
36330.28232674143 42778.82754692412 10.5 0.5769741426840947 0.8167624126231287 0.0
36330.28232674143 42778.82754692412 2.9999999999999996 0.5769741426840947 0.8167624126231287 0.0
36330.58201706476 42771.58393867094 4.5 0.8125721726240517 -0.5828605873423149 0.0
36330.58201706476 42771.58393867094 13.5 0.8125721726240517 -0.5828605873423149 0.0
36330.58201706476 42771.58393867094 22.5 0.8125721726240517 -0.5828605873423149 0.0
36330.58201706476 42771.58393867094 31.5 0.8125721726240517 -0.5828605873423149 0.0
36330.58201706476 42771.58393867094 39.0 0.8125721726240517 -0.5828605873423149 0.0
36333.56436046476 42775.74165547094 4.5000000000000036 0.8125721726240517 -0.5828605873423149 0.0
36333.56436046476 42775.74165547094 13.500000000000004 0.8125721726240517 -0.5828605873423149 0.0
36333.56436046476 42775.74165547094 22.5 0.8125721726240517 -0.5828605873423149 0.0
36333.56436046476 42775.74165547094 31.5 0.8125721726240517 -0.5828605873423149 0.0
36333.56436046476 42775.74165547094 39.0 0.8125721726240517 -0.5828605873423149 0.0
36324.271638256985 42770.52399537856 37.5 -0.5775480989199939 -0.816356658228437 -0.0
36324.271638256985 42770.52399537856 28.5 -0.5775480989199939 -0.816356658228437 -0.0
36324.271638256985 42770.52399537856 19.5 -0.5775480989199939 -0.816356658228437 -0.0
36324.271638256985 42770.52399537856 10.5 -0.5775480989199939 -0.816356658228437 -0.0
36324.271638256985 42770.52399537856 3.0 -0.5775480989199939 -0.816356658228437 -0.0
36316.92442833293 42775.72192826884 37.5 -0.5775480989199939 -0.816356658228437 -0.0
36316.92442833293 42775.72192826884 28.5 -0.5775480989199939 -0.816356658228437 -0.0
36316.92442833293 42775.72192826884 19.5 -0.5775480989199939 -0.816356658228437 -0.0
36316.92442833293 42775.72192826884 10.5 -0.5775480989199939 -0.816356658228437 -0.0
36316.92442833293 42775.721928268846 3.0 -0.5775480989199939 -0.816356658228437 -0.0
36312.345957894955 42778.96106017369 37.5 -0.5775480989199939 -0.816356658228437 -0.0
36312.345957894955 42778.96106017369 28.5 -0.5775480989199939 -0.816356658228437 -0.0
36312.345957894955 42778.96106017369 19.5 -0.5775480989199939 -0.816356658228437 -0.0
36312.345957894955 42778.96106017369 10.5 -0.5775480989199939 -0.816356658228437 -0.0
36312.345957894955 42778.96106017369 3.0 -0.5775480989199939 -0.816356658228437 -0.0
36320.79019997357 42792.65553574699 4.5 -0.8126431044172241 0.5827616878648909 0.0
36320.79019997357 42792.65553574699 13.5 -0.8126431044172241 0.5827616878648909 0.0
36320.79019997357 42792.65553574699 22.5 -0.8126431044172241 0.5827616878648909 0.0
36320.79019997357 42792.65553574699 31.5 -0.8126431044172241 0.5827616878648909 0.0
36320.79019997357 42792.65553574699 39.0 -0.8126431044172241 0.5827616878648909 0.0
36315.54534478279 42785.34174780724 4.5 -0.8126431044172241 0.5827616878648909 0.0
36315.54534478279 42785.34174780724 13.5 -0.8126431044172241 0.5827616878648909 0.0
36315.54534478279 42785.34174780724 22.5 -0.8126431044172241 0.5827616878648909 0.0
36315.54534478279 42785.34174780724 31.5 -0.8126431044172241 0.5827616878648909 0.0
36315.54534478278 42785.34174780724 39.0 -0.8126431044172241 0.5827616878648909 0.0
36312.18082932819 42780.65003532712 4.5 -0.8126431044172241 0.5827616878648909 0.0
36312.18082932819 42780.65003532712 13.5 -0.8126431044172241 0.5827616878648909 0.0
36312.18082932819 42780.65003532712 22.5 -0.8126431044172241 0.5827616878648909 0.0
36312.18082932819 42780.65003532712 31.5 -0.8126431044172241 0.5827616878648909 0.0
36312.18082932819 42780.65003532712 39.0 -0.8126431044172241 0.5827616878648909 0.0
36311.914631758074 42814.55871486777 4.5 0.8040836288479907 -0.5945162048410848 0.0
36311.914631758074 42814.55871486777 13.5 0.8040836288479907 -0.5945162048410848 0.0
36311.914631758074 42814.55871486777 22.5 0.8040836288479907 -0.5945162048410848 0.0
36311.914631758074 42814.55871486777 31.5 0.8040836288479907 -0.5945162048410848 0.0
36311.914631758074 42814.55871486777 39.0 0.8040836288479907 -0.5945162048410848 0.0
36314.91923520807 42818.62244336777 4.5 0.8040836288479907 -0.5945162048410848 0.0
36314.91923520807 42818.62244336777 13.5 0.8040836288479907 -0.5945162048410848 0.0
36314.91923520807 42818.62244336777 22.5 0.8040836288479907 -0.5945162048410848 0.0
36314.91923520807 42818.62244336777 31.5 0.8040836288479907 -0.5945162048410848 0.0
36314.91923520807 42818.62244336777 39.0 0.8040836288479907 -0.5945162048410848 0.0
36312.87350076556 42808.30351233618 37.5 0.589078249733401 0.8080759962349042 0.0
36312.87350076556 42808.30351233618 28.5 0.589078249733401 0.8080759962349042 0.0
36312.87350076556 42808.30351233618 19.5 0.589078249733401 0.8080759962349042 0.0
36312.87350076556 42808.30351233618 10.5 0.589078249733401 0.8080759962349042 0.0
36312.87350076556 42808.30351233617 3.0 0.589078249733401 0.8080759962349042 0.0
36316.63506921556 42805.56137153617 37.5 0.589078249733401 0.8080759962349042 0.0
36316.63506921556 42805.56137153617 28.5 0.589078249733401 0.8080759962349042 0.0
36316.63506921556 42805.56137153617 19.5 0.589078249733401 0.8080759962349042 0.0
36316.63506921556 42805.56137153617 10.5 0.589078249733401 0.8080759962349042 0.0
36316.63506921556 42805.56137153617 3.0 0.589078249733401 0.8080759962349042 0.0
36311.44647319227 42798.26088690052 4.5 0.8042934940198077 -0.5942322571835104 0.0
36311.44647319227 42798.26088690052 13.5 0.8042934940198077 -0.5942322571835104 0.0
36311.44647319227 42798.26088690052 22.5 0.8042934940198077 -0.5942322571835104 0.0
36311.44647319227 42798.26088690052 31.5 0.8042934940198077 -0.5942322571835104 0.0
36311.44647319227 42798.26088690052 39.0 0.8042934940198077 -0.5942322571835104 0.0
36315.44148309226 42803.66813370053 4.5 0.8042934940198077 -0.5942322571835104 0.0
36315.44148309226 42803.66813370053 13.5 0.8042934940198077 -0.5942322571835104 0.0
36315.44148309226 42803.66813370053 22.5 0.8042934940198077 -0.5942322571835104 0.0
36315.44148309226 42803.66813370053 31.5 0.8042934940198077 -0.5942322571835104 0.0
36315.44148309226 42803.66813370053 39.0 0.8042934940198077 -0.5942322571835104 0.0
36310.42848836924 42793.4448410328 37.5 0.5896919226226519 0.8076282785995055 0.0
36310.42848836923 42793.4448410328 28.5 0.5896919226226519 0.8076282785995055 0.0
36310.42848836923 42793.4448410328 19.5 0.5896919226226519 0.8076282785995055 0.0
36310.42848836923 42793.4448410328 10.500000000000002 0.5896919226226519 0.8076282785995055 0.0
36310.42848836923 42793.4448410328 3.0 0.5896919226226519 0.8076282785995055 0.0
36309.28824669406 42788.43038810814 4.5 0.8042249906228557 -0.5943249653663117 0.0
36309.28824669406 42788.43038810814 13.5 0.8042249906228557 -0.5943249653663117 0.0
36309.28824669406 42788.43038810814 22.5 0.8042249906228557 -0.5943249653663117 0.0
36309.28824669406 42788.43038810814 31.5 0.8042249906228557 -0.5943249653663117 0.0
36309.28824669406 42788.43038810814 39.0 0.8042249906228557 -0.5943249653663117 0.0
36312.02577454406 42792.134739158144 4.5 0.8042249906228557 -0.5943249653663117 0.0
36312.02577454406 42792.134739158144 13.5 0.8042249906228557 -0.5943249653663117 0.0
36312.02577454406 42792.134739158144 22.5 0.8042249906228557 -0.5943249653663117 0.0
36312.02577454406 42792.134739158144 31.5 0.8042249906228557 -0.5943249653663117 0.0
36312.02577454406 42792.134739158144 39.0 0.8042249906228557 -0.5943249653663117 0.0
36302.96369411622 42787.46034490892 37.5 -0.589134745999713 -0.808034808071938 -0.0
36302.96369411622 42787.46034490892 28.5 -0.589134745999713 -0.808034808071938 -0.0
36302.96369411622 42787.46034490892 19.5 -0.589134745999713 -0.808034808071938 -0.0
36302.96369411622 42787.46034490892 10.5 -0.589134745999713 -0.808034808071938 -0.0
36302.96369411622 42787.46034490892 3.0 -0.589134745999713 -0.808034808071938 -0.0
36295.69138084357 42792.76255762291 37.5 -0.589134745999713 -0.808034808071938 -0.0
36295.69138084357 42792.76255762291 28.5 -0.589134745999713 -0.808034808071938 -0.0
36295.69138084357 42792.76255762291 19.5 -0.589134745999713 -0.808034808071938 -0.0
36295.69138084357 42792.76255762291 10.5 -0.589134745999713 -0.808034808071938 -0.0
36295.69138084357 42792.76255762291 3.0 -0.589134745999713 -0.808034808071938 -0.0
36290.46336787989 42796.57427966592 37.5 -0.589134745999713 -0.808034808071938 -0.0
36290.46336787989 42796.57427966592 28.5 -0.589134745999713 -0.808034808071938 -0.0
36290.46336787989 42796.57427966592 19.5 -0.589134745999713 -0.808034808071938 -0.0
36290.46336787989 42796.57427966592 10.5 -0.589134745999713 -0.808034808071938 -0.0
36290.46336787989 42796.57427966592 3.0 -0.589134745999713 -0.808034808071938 -0.0
36292.83843698429 42803.11984935299 4.5 -0.8042292309517944 0.5943192274213289 0.0
36292.83843698429 42803.11984935299 13.5 -0.8042292309517944 0.5943192274213289 0.0
36292.83843698429 42803.11984935299 22.5 -0.8042292309517944 0.5943192274213289 0.0
36292.83843698429 42803.11984935299 31.5 -0.8042292309517944 0.5943192274213289 0.0
36292.83843698429 42803.11984935299 39.0 -0.8042292309517944 0.5943192274213289 0.0
36289.516680534296 42798.624868352985 4.5 -0.8042292309517944 0.5943192274213289 0.0
36289.516680534296 42798.624868352985 13.5 -0.8042292309517944 0.5943192274213289 0.0
36289.516680534296 42798.624868352985 22.5 -0.8042292309517944 0.5943192274213289 0.0
36289.516680534296 42798.624868352985 31.5 -0.8042292309517944 0.5943192274213289 0.0
36289.516680534296 42798.624868352985 39.0 -0.8042292309517944 0.5943192274213289 0.0
36298.30346586491 42804.71758480675 37.5 0.5889414907678778 0.8081756742516504 0.0
36298.30346586491 42804.71758480675 28.5 0.5889414907678778 0.8081756742516504 0.0
36298.30346586491 42804.71758480675 19.5 0.5889414907678778 0.8081756742516504 0.0
36298.30346586491 42804.71758480675 10.5 0.5889414907678778 0.8081756742516504 0.0
36298.30346586491 42804.71758480675 3.0 0.5889414907678778 0.8081756742516504 0.0
36300.464550625504 42811.597217090944 4.5 -0.9977434424261069 -0.06714181331854126 0.0
36300.464550625504 42811.597217090944 13.5 -0.9977434424261069 -0.06714181331854126 0.0
36300.464550625504 42811.597217090944 22.5 -0.9977434424261069 -0.06714181331854126 0.0
36300.464550625504 42811.597217090944 31.5 -0.9977434424261069 -0.06714181331854126 0.0
36300.464550625504 42811.59721709095 39.0 -0.9977434424261069 -0.06714181331854126 0.0
36300.91547422549 42804.89638429094 4.5 -0.9977434424261069 -0.06714181331854126 0.0
36300.91547422549 42804.89638429094 13.5 -0.9977434424261069 -0.06714181331854126 0.0
36300.91547422549 42804.89638429094 22.5 -0.9977434424261069 -0.06714181331854126 0.0
36300.91547422549 42804.89638429094 31.5 -0.9977434424261069 -0.06714181331854126 0.0
36300.91547422549 42804.89638429094 39.0 -0.9977434424261069 -0.06714181331854126 0.0
36297.537489864015 42812.510127798356 4.5 0.8038514012084386 -0.594830164648053 0.0
36297.537489864015 42812.510127798356 13.499999999999996 0.8038514012084386 -0.594830164648053 0.0
36297.537489864015 42812.510127798356 22.499999999999996 0.8038514012084386 -0.594830164648053 0.0
36297.537489864015 42812.510127798356 31.5 0.8038514012084386 -0.594830164648053 0.0
36297.537489864015 42812.510127798356 39.0 0.8038514012084386 -0.594830164648053 0.0
36291.244525755596 42811.58752818038 37.5 -0.5891533761422193 -0.8080212245852362 -0.0
36291.244525755596 42811.58752818038 28.5 -0.5891533761422193 -0.8080212245852362 -0.0
36291.244525755596 42811.58752818038 19.5 -0.5891533761422193 -0.8080212245852362 -0.0
36291.244525755596 42811.58752818038 10.5 -0.5891533761422193 -0.8080212245852362 -0.0
36291.244525755596 42811.58752818038 2.9999999999999996 -0.5891533761422193 -0.8080212245852362 -0.0
36287.10457500559 42814.606094880386 37.5 -0.5891533761422193 -0.8080212245852362 -0.0
36287.10457500559 42814.606094880386 28.5 -0.5891533761422193 -0.8080212245852362 -0.0
36287.10457500559 42814.606094880386 19.5 -0.5891533761422193 -0.8080212245852362 -0.0
36287.10457500559 42814.606094880386 10.5 -0.5891533761422193 -0.8080212245852362 -0.0
36287.10457500559 42814.606094880386 2.9999999999999996 -0.5891533761422193 -0.8080212245852362 -0.0
36295.91907875759 42827.591103292274 4.5 -0.8040297773442923 0.5945890321421073 0.0
36295.91907875759 42827.591103292274 13.5 -0.8040297773442923 0.5945890321421073 0.0
36295.91907875759 42827.591103292274 22.5 -0.8040297773442923 0.5945890321421073 0.0
36295.91907875759 42827.591103292274 31.5 -0.8040297773442923 0.5945890321421073 0.0
36295.91907875759 42827.591103292274 39.0 -0.8040297773442923 0.5945890321421073 0.0
36290.56777746831 42820.35483529617 4.5 -0.8040297773442923 0.5945890321421073 0.0
36290.56777746831 42820.35483529617 13.5 -0.8040297773442923 0.5945890321421073 0.0
36290.56777746831 42820.35483529617 22.5 -0.8040297773442923 0.5945890321421073 0.0
36290.56777746831 42820.35483529617 31.5 -0.8040297773442923 0.5945890321421073 0.0
36290.56777746831 42820.35483529617 39.0 -0.8040297773442923 0.5945890321421073 0.0
36287.24534891295 42815.862099394224 4.5 -0.8040297773442923 0.5945890321421073 0.0
36287.24534891295 42815.862099394224 13.5 -0.8040297773442923 0.5945890321421073 0.0
36287.24534891295 42815.862099394224 22.5 -0.8040297773442923 0.5945890321421073 0.0
36287.24534891295 42815.862099394224 31.5 -0.8040297773442923 0.5945890321421073 0.0
36287.24534891295 42815.862099394224 39.0 -0.8040297773442923 0.5945890321421073 0.0
36302.24491409123 42828.5603982441 37.5 0.5891052708606783 0.8080562974472552 0.0
36302.24491409123 42828.5603982441 28.5 0.5891052708606783 0.8080562974472552 0.0
36302.24491409123 42828.5603982441 19.5 0.5891052708606783 0.8080562974472552 0.0
36302.24491409123 42828.5603982441 10.5 0.5891052708606783 0.8080562974472552 0.0
36302.24491409123 42828.5603982441 3.0 0.5891052708606783 0.8080562974472552 0.0
36309.51742076824 42823.25845080635 37.5 0.5891052708606783 0.8080562974472552 0.0
36309.51742076824 42823.25845080635 28.5 0.5891052708606783 0.8080562974472552 0.0
36309.51742076824 42823.25845080635 19.5 0.5891052708606783 0.8080562974472552 0.0
36309.51742076824 42823.25845080635 10.5 0.5891052708606783 0.8080562974472552 0.0
36309.51742076825 42823.25845080635 2.9999999999999996 0.5891052708606783 0.8080562974472552 0.0
36314.20002002974 42819.84464917524 37.5 0.5891052708606783 0.8080562974472552 0.0
36314.20002002974 42819.84464917524 28.5 0.5891052708606783 0.8080562974472552 0.0
36314.20002002974 42819.84464917524 19.5 0.5891052708606783 0.8080562974472552 0.0
36314.20002002974 42819.84464917524 10.5 0.5891052708606783 0.8080562974472552 0.0
36314.20002002974 42819.84464917524 3.0 0.5891052708606783 0.8080562974472552 0.0
36242.31154841745 42918.42510699607 37.5 0.546889456044858 0.8372048273074871 0.0
36242.31154841745 42918.42510699607 28.5 0.546889456044858 0.8372048273074871 0.0
36242.31154841745 42918.42510699607 19.5 0.546889456044858 0.8372048273074871 0.0
36242.31154841745 42918.42510699607 10.5 0.546889456044858 0.8372048273074871 0.0
36242.31154841745 42918.42510699607 3.0 0.546889456044858 0.8372048273074871 0.0
36246.55164681745 42915.65533664607 37.5 0.546889456044858 0.8372048273074871 0.0
36246.55164681745 42915.65533664607 28.5 0.546889456044858 0.8372048273074871 0.0
36246.55164681745 42915.65533664607 19.5 0.546889456044858 0.8372048273074871 0.0
36246.55164681745 42915.65533664607 10.5 0.546889456044858 0.8372048273074871 0.0
36246.55164681745 42915.65533664607 2.9999999999999996 0.546889456044858 0.8372048273074871 0.0
36249.654572263855 42919.33316472803 4.5 -0.8335492718177835 0.5524451207604633 0.0
36249.654572263855 42919.33316472803 13.5 -0.8335492718177835 0.5524451207604633 0.0
36249.654572263855 42919.33316472803 22.5 -0.8335492718177835 0.5524451207604633 0.0
36249.654572263855 42919.33316472803 31.5 -0.8335492718177835 0.5524451207604633 0.0
36249.654572263855 42919.33316472802 39.0 -0.8335492718177835 0.5524451207604633 0.0
36247.08954416386 42915.46295712803 4.5 -0.8335492718177835 0.5524451207604633 0.0
36247.08954416386 42915.46295712803 13.5 -0.8335492718177835 0.5524451207604633 0.0
36247.08954416386 42915.46295712803 22.5 -0.8335492718177835 0.5524451207604633 0.0
36247.08954416386 42915.46295712803 31.5 -0.8335492718177835 0.5524451207604633 0.0
36247.08954416386 42915.46295712803 39.0 -0.8335492718177835 0.5524451207604633 0.0
36255.91958635229 42920.62257741568 37.5 0.547644820763043 0.8367109120188493 0.0
36255.91958635229 42920.62257741568 28.5 0.547644820763043 0.8367109120188493 0.0
36255.91958635229 42920.62257741568 19.5 0.547644820763043 0.8367109120188493 0.0
36255.91958635229 42920.62257741568 10.5 0.547644820763043 0.8367109120188493 0.0
36255.91958635229 42920.62257741568 3.0 0.547644820763043 0.8367109120188493 0.0
36261.56192240229 42916.92955026568 37.5 0.547644820763043 0.8367109120188493 0.0
36261.56192240229 42916.92955026568 28.5 0.547644820763043 0.8367109120188493 0.0
36261.56192240229 42916.92955026568 19.5 0.547644820763043 0.8367109120188493 0.0
36261.56192240229 42916.92955026568 10.500000000000002 0.547644820763043 0.8367109120188493 0.0
36261.56192240229 42916.92955026568 3.0 0.547644820763043 0.8367109120188493 0.0
36264.55474357479 42917.40649293585 4.5 -0.8341725215271942 0.5515035850554034 -1.5307447148611297e-18
36264.55474357479 42917.40649293585 13.5 -0.8341725215271942 0.5515035850554034 -1.5307447148611297e-18
36264.55474357479 42917.40649293585 22.5 -0.8341725215271942 0.5515035850554034 -1.5307447148611297e-18
36264.55474357479 42917.40649293585 31.5 -0.8341725215271942 0.5515035850554034 -1.5307447148611297e-18
36264.55474357479 42917.40649293585 39.0 -0.8341725215271942 0.5515035850554034 -1.5307447148611297e-18
36269.46535278845 42916.65657450517 37.5 0.5469323029336103 0.837176836760154 0.0
36269.46535278845 42916.65657450517 28.5 0.5469323029336103 0.837176836760154 0.0
36269.46535278845 42916.65657450517 19.5 0.5469323029336103 0.837176836760154 0.0
36269.46535278845 42916.65657450517 10.5 0.5469323029336103 0.837176836760154 0.0
36269.46535278845 42916.65657450517 3.0 0.5469323029336103 0.837176836760154 0.0
36273.332634438455 42914.13005780517 37.5 0.5469323029336103 0.837176836760154 0.0
36273.332634438455 42914.13005780517 28.5 0.5469323029336103 0.837176836760154 0.0
36273.332634438455 42914.13005780517 19.5 0.5469323029336103 0.837176836760154 0.0
36273.332634438455 42914.13005780517 10.5 0.5469323029336103 0.837176836760154 0.0
36273.332634438455 42914.13005780517 3.0 0.5469323029336103 0.837176836760154 0.0
36263.825806889436 42899.55616933857 4.5 0.8334656779694957 -0.5525712294780185 1.0266498095018188e-17
36263.825806889436 42899.55616933857 13.5 0.8334656779694957 -0.5525712294780185 1.0266498095018188e-17
36263.825806889436 42899.55616933857 22.5 0.8334656779694957 -0.5525712294780185 1.0266498095018188e-17
36263.825806889436 42899.55616933857 31.5 0.8334656779694957 -0.5525712294780185 1.0266498095018188e-17
36263.825806889436 42899.55616933857 39.0 0.8334656779694957 -0.5525712294780185 1.0266498095018188e-17
36268.79894795473 42907.057360440296 4.5 0.8334656779694957 -0.5525712294780185 1.0266498095018188e-17
36268.79894795473 42907.057360440296 13.5 0.8334656779694957 -0.5525712294780185 1.0266498095018188e-17
36268.79894795473 42907.057360440296 22.5 0.8334656779694957 -0.5525712294780185 1.0266498095018188e-17
36268.79894795473 42907.057360440296 31.5 0.8334656779694957 -0.5525712294780185 1.0266498095018188e-17
36268.79894795473 42907.057360440296 39.0 0.8334656779694957 -0.5525712294780185 1.0266498095018188e-17
36272.360502072086 42912.42939748943 4.5 0.8334656779694957 -0.5525712294780185 1.0266498095018188e-17
36272.360502072086 42912.42939748943 13.5 0.8334656779694957 -0.5525712294780185 1.0266498095018188e-17
36272.360502072086 42912.42939748943 22.5 0.8334656779694957 -0.5525712294780185 1.0266498095018188e-17
36272.360502072086 42912.42939748943 31.5 0.8334656779694957 -0.5525712294780185 1.0266498095018188e-17
36272.360502072086 42912.42939748943 39.0 0.8334656779694957 -0.5525712294780185 1.0266498095018188e-17
36257.55951859514 42898.26604745798 37.5 -0.5474036988424802 -0.8368686817497543 -0.0
36257.55951859514 42898.26604745798 28.5 -0.5474036988424802 -0.8368686817497543 -0.0
36257.55951859514 42898.26604745798 19.5 -0.5474036988424802 -0.8368686817497543 -0.0
36257.55951859514 42898.26604745798 10.5 -0.5474036988424802 -0.8368686817497543 -0.0
36257.55951859514 42898.26604745798 3.0 -0.5474036988424802 -0.8368686817497543 -0.0
36252.86870044514 42901.33435585798 37.5 -0.5474036988424802 -0.8368686817497543 -0.0
36252.86870044514 42901.33435585798 28.5 -0.5474036988424802 -0.8368686817497543 -0.0
36252.86870044514 42901.33435585798 19.5 -0.5474036988424802 -0.8368686817497543 -0.0
36252.86870044514 42901.33435585798 10.5 -0.5474036988424802 -0.8368686817497543 -0.0
36252.86870044514 42901.33435585797 3.0 -0.5474036988424802 -0.8368686817497543 -0.0
36253.83270401039 42904.81166002024 4.5 -0.8339089614606453 0.5519020239097047 0.0
36253.83270401039 42904.81166002024 13.5 -0.8339089614606453 0.5519020239097047 0.0
36253.83270401039 42904.81166002024 22.5 -0.8339089614606453 0.5519020239097047 0.0
36253.83270401039 42904.81166002024 31.5 -0.8339089614606453 0.5519020239097047 0.0
36253.83270401039 42904.81166002024 39.0 -0.8339089614606453 0.5519020239097047 0.0
36251.264917768094 42907.1279629629 37.5 0.11703810285472042 -0.9931274250971867 -0.0
36251.264917768094 42907.1279629629 28.5 0.11703810285472042 -0.9931274250971867 -0.0
36251.264917768094 42907.1279629629 19.5 0.11703810285472042 -0.9931274250971867 -0.0
36251.264917768094 42907.1279629629 10.5 0.11703810285472042 -0.9931274250971867 -0.0
36251.264917768094 42907.1279629629 3.0 0.11703810285472042 -0.9931274250971867 -0.0
36244.5543745181 42906.337138712894 37.5 0.11703810285472042 -0.9931274250971867 -0.0
36244.5543745181 42906.337138712894 28.5 0.11703810285472042 -0.9931274250971867 -0.0
36244.5543745181 42906.337138712894 19.5 0.11703810285472042 -0.9931274250971867 -0.0
36244.5543745181 42906.337138712894 10.5 0.11703810285472042 -0.9931274250971867 -0.0
36244.5543745181 42906.337138712894 3.0 0.11703810285472042 -0.9931274250971867 -0.0
36246.04537824034 42903.653225073234 37.5 0.5473140353045789 0.8369273246576541 6.418771625749521e-18
36246.04537824034 42903.653225073234 28.5 0.5473140353045789 0.8369273246576541 6.418771625749521e-18
36246.04537824034 42903.653225073234 19.5 0.5473140353045789 0.8369273246576541 6.418771625749521e-18
36246.04537824034 42903.653225073234 10.5 0.5473140353045789 0.8369273246576541 6.418771625749521e-18
36246.04537824034 42903.653225073234 3.0 0.5473140353045789 0.8369273246576541 6.418771625749521e-18
36246.610156756615 42896.426180970426 4.5 0.8334282770700282 -0.5526276386320941 0.0
36246.610156756615 42896.426180970426 13.5 0.8334282770700282 -0.5526276386320941 0.0
36246.610156756615 42896.426180970426 22.5 0.8334282770700282 -0.5526276386320941 0.0
36246.610156756615 42896.426180970426 31.5 0.8334282770700282 -0.5526276386320941 0.0
36246.610156756615 42896.426180970426 39.0 0.8334282770700282 -0.5526276386320941 0.0
36249.436695656615 42900.688938170424 4.5 0.8334282770700282 -0.5526276386320941 0.0
36249.436695656615 42900.688938170424 13.5 0.8334282770700282 -0.5526276386320941 0.0
36249.436695656615 42900.688938170424 22.5 0.8334282770700282 -0.5526276386320941 0.0
36249.436695656615 42900.688938170424 31.5 0.8334282770700282 -0.5526276386320941 0.0
36249.436695656615 42900.688938170424 39.0 0.8334282770700282 -0.5526276386320941 0.0
36240.34432267173 42895.137314774714 37.5 -0.5476448630137963 -0.8367108843648445 -5.955211980932046e-18
36240.34432267173 42895.137314774714 28.5 -0.5476448630137963 -0.8367108843648445 -5.955211980932046e-18
36240.34432267173 42895.137314774714 19.5 -0.5476448630137963 -0.8367108843648445 -5.955211980932046e-18
36240.34432267173 42895.137314774714 10.5 -0.5476448630137963 -0.8367108843648445 -5.955211980932046e-18
36240.34432267173 42895.137314774714 3.0 -0.5476448630137963 -0.8367108843648445 -5.955211980932046e-18
36232.81392471245 42900.06611854184 37.5 -0.5476448630137963 -0.8367108843648445 -5.955211980932046e-18
36232.81392471245 42900.06611854184 28.5 -0.5476448630137963 -0.8367108843648445 -5.955211980932046e-18
36232.81392471245 42900.06611854184 19.5 -0.5476448630137963 -0.8367108843648445 -5.955211980932046e-18
36232.81392471245 42900.06611854184 10.5 -0.5476448630137963 -0.8367108843648445 -5.955211980932046e-18
36232.81392471245 42900.066118541836 3.0 -0.5476448630137963 -0.8367108843648445 -5.955211980932046e-18
36228.11561944209 42903.14125810828 37.5 -0.5476448630137963 -0.8367108843648445 -5.955211980932046e-18
36228.11561944209 42903.14125810828 28.5 -0.5476448630137963 -0.8367108843648445 -5.955211980932046e-18
36228.11561944209 42903.14125810828 19.5 -0.5476448630137963 -0.8367108843648445 -5.955211980932046e-18
36228.11561944209 42903.14125810828 10.5 -0.5476448630137963 -0.8367108843648445 -5.955211980932046e-18
36228.11561944209 42903.14125810828 3.0 -0.5476448630137963 -0.8367108843648445 -5.955211980932046e-18
36236.04342009588 42917.13288919867 4.5 -0.8334166119175132 0.5526452306678612 5.97995351921995e-18
36236.04342009588 42917.13288919867 13.5 -0.8334166119175132 0.5526452306678612 5.97995351921995e-18
36236.04342009588 42917.13288919867 22.5 -0.8334166119175132 0.5526452306678612 5.97995351921995e-18
36236.04342009588 42917.13288919867 31.5 -0.8334166119175132 0.5526452306678612 5.97995351921995e-18
36236.04342009588 42917.13288919868 39.0 -0.8334166119175132 0.5526452306678612 5.97995351921995e-18
36231.06961301986 42909.63213969141 4.5 -0.8334166119175132 0.5526452306678612 5.97995351921995e-18
36231.06961301986 42909.63213969141 13.5 -0.8334166119175132 0.5526452306678612 5.97995351921995e-18
36231.06961301986 42909.63213969141 22.5 -0.8334166119175132 0.5526452306678612 5.97995351921995e-18
36231.06961301986 42909.63213969141 31.5 -0.8334166119175132 0.5526452306678612 5.97995351921995e-18
