-22.92362785,7.96964788,2.28470802,0.363897,121,91,78
-22.87930679,8.09121704,2.38187599,0.403937,68,53,54
-22.84456444,8.18672752,2.44492602,0.442512,179,165,162
-22.86085701,8.14270401,3.04606104,0.341192,61,57,57
-22.86122322,8.14172935,3.05738306,0.338994,63,63,77
-23.20154572,7.20769358,2.82349610,0.380255,36,30,36
-22.86162376,8.14084625,3.35206103,0.473762,49,50,56
-22.86278915,8.13760376,3.35663819,0.380499,45,43,50
-22.86348152,8.13564873,3.36176515,0.355352,56,46,44
-22.82722092,8.23559666,3.74915504,0.398322,54,46,39
-22.82962990,8.22901249,3.75226808,0.588266,48,43,36
-22.82980728,8.22849178,3.75821900,0.454963,41,35,30
-22.80831528,8.28774261,4.11207008,0.339727,85,94,133
-22.80792999,8.28884602,4.11912012,0.345830,84,98,135
-22.80738640,8.29034042,4.12641430,0.351934,83,98,121
-22.80599594,8.29413986,4.14139795,0.362188,83,90,108
-22.80523682,8.29626179,4.14899731,0.419074,55,58,65
-22.80507278,8.29669666,4.15574121,0.508431,36,36,38
-22.80394173,8.29983521,4.16388893,0.327764,38,36,37
-22.87868118,8.09481239,4.15796900,0.330694,41,41,35
-22.69177437,8.60904789,5.62336206,0.355840,98,109,128
-22.69255638,8.60690784,5.62958813,0.340459,81,94,113
-22.98496246,7.78600121,0.61417598,0.346319,17,14,11
-22.80491257,8.27935123,1.07612097,0.384405,114,82,79
-22.83188438,8.20554256,1.23481202,0.326543,52,36,37
-22.53984833,9.00573444,1.67609596,0.334600,140,135,124
-22.54012299,9.00498581,1.68186402,0.339483,183,165,171
-22.54123497,9.00197601,1.68717396,0.402228,205,191,205
-22.54158401,9.00097752,1.69284999,0.403937,212,200,211
-22.50165939,9.11043262,1.87592494,0.334844,218,206,218
-23.12401962,7.40592909,1.52610195,0.363409,215,203,214
-22.30645943,9.64523411,2.19523120,0.323857,210,198,211
-22.95092392,7.88062620,2.14124513,0.337041,104,92,79
-22.95151520,7.87893963,2.14600611,0.363897,105,85,79
-22.91777229,7.97149229,2.28040504,0.359258,127,103,93
-22.87589073,8.08621883,2.38086915,0.365850,73,54,54
-22.83305359,8.20360661,2.45640016,0.402228,70,65,62
-22.73826981,8.46330261,2.64261913,0.328252,137,109,122
-22.86326218,8.12123394,2.89387012,0.322637,90,99,122
-22.86210251,8.12443352,2.92383814,0.340459,77,88,112
-22.86242867,8.12360573,2.92927003,0.447883,85,93,114
-22.85996437,8.13076878,3.35447216,0.358038,68,70,74
-22.86029816,8.12989902,3.36005616,0.410040,92,86,75
-22.86124992,8.12728119,3.36487818,0.448371,100,73,73
-22.80413818,8.28440762,4.14374828,0.428351,97,103,117
-22.80382538,8.28530216,4.15064526,0.470588,68,72,83
-22.80344772,8.28636265,4.15772486,0.496223,41,36,32
-22.80222702,8.28968525,4.16602612,0.426886,38,33,26
-22.80145264,8.29178143,4.17359400,0.346075,31,28,16
-22.79459000,8.31070805,4.23600197,0.419318,43,46,68
-22.98891640,7.77842426,4.07450294,0.327276,45,34,34
-22.98130417,7.78153944,0.61399299,0.390997,20,15,12
-22.98195267,7.77957773,0.61881500,0.349248,40,32,29
-22.79969788,8.27812290,1.07090199,0.325567,125,100,105
-22.80217171,8.27137470,1.07529700,0.484260,113,77,73
-22.80257607,8.27029514,1.08051503,0.373663,112,77,75
-22.82687950,8.20388412,1.19791603,0.426886,41,27,21
-23.04370117,7.61150312,1.26957202,0.337285,179,170,190
-22.97044182,7.81188822,1.38019800,0.495979,180,164,171
-22.78861427,8.30898762,1.73237097,0.326055,218,206,218
-22.78595734,8.31629848,1.73945093,0.342412,217,206,216
-22.48857689,9.12917328,1.96491492,0.336553,214,203,213
-22.94703674,7.87641478,2.14060402,0.357549,96,84,75
-22.91472244,7.96486712,2.28443408,0.354131,99,87,80
-22.91467285,7.96509981,2.29526711,0.335332,135,109,121
-22.83020782,8.19594097,2.46021509,0.391485,38,33,60
-22.86367989,8.10479164,2.85407519,0.349493,77,92,128
-22.86042595,8.11383152,2.89759302,0.339971,82,89,104
-22.85973930,8.11574459,2.92707300,0.365850,83,93,114
-22.85933685,8.11682224,2.93326807,0.480598,73,83,106
-22.85854912,8.11900425,2.94562817,0.339483,82,91,110
-22.85606194,8.12618637,3.35926318,0.379522,77,95,103
-22.85772514,8.12163830,3.36329103,0.399542,71,76,98
-22.85898018,8.11821175,3.36777711,0.384405,58,61,87
-22.82010841,8.22478104,3.75205517,0.332891,74,71,67
-22.82291603,8.21716309,3.75461817,0.515999,50,45,34
-22.82419586,8.21371746,3.75919604,0.354864,45,40,35
-22.80306435,8.27188301,4.13813210,0.335088,91,99,120
-22.80280304,8.27254486,4.14499903,0.456916,67,69,83
-22.80204391,8.27466488,4.15259790,0.381231,62,59,70
-22.80059433,8.27858734,4.16773510,0.359258,38,34,27
-22.79817200,8.28525639,4.19733715,0.328008,33,31,37
-22.79599380,8.29123878,4.21354103,0.373175,55,50,58
-22.79250526,8.30057430,4.24479103,0.367315,72,80,109
-22.76430893,8.37855434,5.05094433,0.349981,49,46,40
-22.76271629,8.38289356,5.06086206,0.354620,71,65,58
-22.89835358,8.01229668,5.01230907,0.349981,59,62,69
-22.71175957,8.52282906,5.53650904,0.331426,94,98,115
-22.71386719,8.51705551,5.54023218,0.327276,67,79,97
-22.71796417,8.50575352,5.54761696,0.323857,83,105,114
-22.97744179,7.77781057,0.61383998,0.383429,20,15,12
-22.97798538,7.77631426,0.61863196,0.427619,42,31,28
-22.79888153,8.26528358,1.07471693,0.362188,122,93,90
-23.03930855,7.60964251,1.26947999,0.361944,166,159,178
-23.03998947,7.60777235,1.27408803,0.340703,199,193,210
-22.96523285,7.81176996,1.38050294,0.430549,209,197,206
-22.48078537,9.13365650,1.97239196,0.331426,217,207,216
-22.94249153,7.87440348,2.13517213,0.324834,69,60,53
-22.94326782,7.87230778,2.13987207,0.337530,102,100,75
-22.91021919,7.96270800,2.28428102,0.329717,96,84,78
-22.86903381,8.07513237,2.38413501,0.351934,56,39,30
-22.82809639,8.18682861,2.46351099,0.418097,58,44,77
-22.72286606,8.47405529,2.63572216,0.326055,143,143,161
-22.72286606,8.47405529,2.64158106,0.382696,142,119,148
-22.85513878,8.11331177,2.80646706,0.400275,81,100,136
-22.85549545,8.11242294,2.82892799,0.343145,83,99,135
-22.85586929,8.11140442,2.83429909,0.439582,80,98,137
-22.85764122,8.10669708,2.89557910,0.325811,74,84,107
-22.85655212,8.10968876,2.92539406,0.384649,75,86,109
-22.85662270,8.10947990,2.93113208,0.424933,80,91,116
-22.85662270,8.10947990,2.93690014,0.401984,79,88,112
-22.85550690,8.11283779,3.36616015,0.550423,64,66,92
-22.85659218,8.11004162,3.37092113,0.424201,42,46,60
-22.85745049,8.10765171,3.37583399,0.466926,67,74,99
-22.81744576,8.21705341,3.75544214,0.574105,79,76,66
-22.82093811,8.20752144,3.75712109,0.659556,43,40,30
-22.83589363,8.16706753,3.98206615,0.328984,48,54,54
-22.80077744,8.26294231,4.14091015,0.454231,92,99,121
-22.80083656,8.26281929,4.14725733,0.410773,89,93,105
-22.79907227,8.26763725,4.16929102,0.346807,69,64,64
-22.79125977,8.28917980,4.24619532,0.330694,47,45,58
-22.78763580,8.29904366,4.27784204,0.331182,56,38,47
-22.78878403,8.29592896,4.28275490,0.484016,52,36,36
-22.87743568,8.05390644,4.17069530,0.366827,41,36,31
-22.89596176,8.00432205,4.98731518,0.408331,51,56,66
-22.97346306,7.77478552,0.61374897,0.365362,30,19,14
-22.97419739,7.77283525,0.61850995,0.406134,45,30,24
-23.03524590,7.60710621,1.26938903,0.350469,137,135,151
-22.96225548,7.80593777,1.38477600,0.328984,204,198,213
-22.47210693,9.14074421,1.95621693,0.326299,214,205,214
-22.35034370,9.47248554,2.09290504,0.341924,214,200,210
-22.29149055,9.63275623,2.37452221,0.357061,215,201,211
-22.93875504,7.87053871,2.13456202,0.330449,94,100,82
-22.93927574,7.86906195,2.13947511,0.335088,101,101,85
-22.90566254,7.96078157,2.28421998,0.358282,151,141,133
-22.82638550,8.17683029,2.46653199,0.366094,54,34,33
-22.71983719,8.46695423,2.63401318,0.346075,68,61,80
-22.85354424,8.10326481,2.79767799,0.371466,80,100,135
-22.85385704,8.10236931,2.80881715,0.399542,82,100,136
-22.85370827,8.10282993,2.83750415,0.335088,83,99,138
-22.85358429,8.10311794,2.84330201,0.329961,83,100,139
-22.85490417,8.09952545,2.84766603,0.422248,82,103,140
-22.85544395,8.09807301,2.85291505,0.370001,82,99,138
-22.85439491,8.10091686,2.90555811,0.328008,87,97,118
-22.85414696,8.10164547,2.91150904,0.332647,82,92,112
-22.85364914,8.10295200,2.91776514,0.339483,78,88,112
-22.85333633,8.10384560,2.92389917,0.389532,83,91,108
-22.85350227,8.10341072,2.92948413,0.525032,87,97,117
-22.85318947,8.10430622,2.93558717,0.372686,80,90,107
-22.85323524,8.10411644,2.94120312,0.374884,83,94,115
-22.85294914,8.10529709,3.36970019,0.394903,51,53,65
-22.85424232,8.10192013,3.37406421,0.474739,74,80,97
-22.85501099,8.09971333,3.37906909,0.449348,76,86,110
-22.59427834,8.81018925,3.95398903,0.330694,57,53,44
-22.81747437,8.20225716,3.75538111,0.585824,41,39,30
-22.83409882,8.15736485,3.99073315,0.328496,77,85,112
-22.79831123,8.25487041,4.14402199,0.407355,88,94,115
-22.79786110,8.25613880,4.15119410,0.380743,53,63,74
-22.78955460,8.27879238,4.24808693,0.361944,49,45,45
-22.78853035,8.28161812,4.25617409,0.437140,49,46,41
-22.78654099,8.28699398,4.27888012,0.400519,55,45,39
-22.79002190,8.27754879,4.28034401,0.463996,44,41,32
-22.85780907,8.09298611,4.18656397,0.333379,48,44,38
-22.87624168,8.04277992,4.16562891,0.345830,44,39,35
-22.86577797,8.07174587,4.70865917,0.344121,64,74,100
-22.71777534,8.47569370,5.52192211,0.396368,92,101,119
-22.71831894,8.47419834,5.52845192,0.337774,75,77,103
-22.96987343,7.76996088,0.61832696,0.517464,53,35,29
-22.80787468,8.21055126,1.11515296,0.375860,89,69,73
-23.02965927,7.60820103,1.26487195,0.390021,55,47,61
-23.03050804,7.60589647,1.26938903,0.344854,87,82,94
-22.36209106,9.42229366,1.64091003,0.328740,37,29,26
-22.36238289,9.42157078,1.64692199,0.331914,65,42,40
-22.36431885,9.41627407,1.65827394,0.333379,137,116,119
-22.95770645,7.80377388,1.38459194,0.442023,147,144,160
-22.46662712,9.13871861,1.95621693,0.376837,216,205,213
-22.46600723,9.14027119,1.96256495,0.411994,214,202,210
-22.47379684,9.11924648,2.00019312,0.347051,212,200,210
-22.93473816,7.86681318,2.13392115,0.549203,60,54,63
-22.93544388,7.86492491,2.13868213,0.359747,101,100,102
-22.90083885,7.95906019,2.28412914,0.363897,137,100,98
-22.86269188,8.06276417,2.38679004,0.449104,122,111,106
-22.82471848,8.16614342,2.46921802,0.373663,99,80,66
-22.66653252,8.59641743,2.89820313,0.358770,86,102,136
-22.85072327,8.09573269,2.78983498,0.408820,83,100,138
-22.85142326,8.09388924,2.79487109,0.412970,81,99,135
-22.85133362,8.09422493,2.80066919,0.338994,82,101,138
-22.85102081,8.09496689,2.80665112,0.410285,80,99,135
-22.85021591,8.09727764,2.91627002,0.328740,85,94,117
-22.84952736,8.09903717,2.92844605,0.529671,86,96,116
-22.84961700,8.09885311,2.93412209,0.497444,84,96,115
-22.84992409,8.09800148,2.93955517,0.359991,83,97,126
-23.15126228,7.27935553,2.96723413,0.393439,34,29,27
-22.85004997,8.09821320,3.37317920,0.525765,72,79,96
-22.85107422,8.09538746,3.37790918,0.509163,62,73,97
-22.85187912,8.09323025,3.38291407,0.452522,66,79,102
-22.79461288,8.24955273,4.14216089,0.424201,87,95,112
-22.79491043,8.24878693,4.14823389,0.508431,30,32,45
-22.78972244,8.26292610,4.21427393,0.367803,54,53,54
-22.78897667,8.26496220,4.22190332,0.390509,73,71,90
-22.78564262,8.27410030,4.25303125,0.424933,43,39,34
-22.78511620,8.27546692,4.26038599,0.346075,45,34,34
-22.78391457,8.27881432,4.28193092,0.489632,52,46,35
-22.81806946,8.18594646,4.23792505,0.399542,57,55,44
-22.86917114,8.04805470,5.08136988,0.333135,98,91,60
-22.96583557,7.76690531,0.61823499,0.581674,60,41,34
-22.80461502,8.20470333,1.11460292,0.338506,62,45,50
-22.95364380,7.80073690,1.38434803,0.419806,124,115,133
-22.96510315,7.76966047,1.49982703,0.325078,215,205,214
-22.45232964,9.16073895,1.95551503,0.368536,218,206,215
-22.45218849,9.16115665,1.96167994,0.364874,218,205,214
-22.45447350,9.15486050,1.96634901,0.364630,218,206,214
-22.45521927,9.15282631,1.97196400,0.398077,218,206,215
-22.45672989,9.14877987,1.97706103,0.333623,217,205,213
-22.46510315,9.12611389,1.97800696,0.353399,214,202,212
-22.46230316,9.13368893,1.98581898,0.397345,216,205,216
-22.93006897,7.86524105,2.12867212,0.437629,79,34,26
-22.93044281,7.86422396,2.13367701,0.362921,65,44,54
-22.89619255,7.95731878,2.28412914,0.325811,160,132,142
-22.85877037,8.05881214,2.38614917,0.401251,94,83,90
-22.82268333,8.15677929,2.47242212,0.364630,35,25,21
-23.07321930,7.47737074,2.34397411,0.492073,173,166,175
-22.84823227,8.08802795,2.79340601,0.494270,83,102,138
-22.84810066,8.08835888,2.79920411,0.334600,82,101,137
-22.84824753,8.08789921,2.81043506,0.370733,84,99,138
-22.84796524,8.08873367,2.82212305,0.353155,86,102,139
-22.84762001,8.08953667,2.85102320,0.398322,81,103,141
-22.84535980,8.09581280,2.93360400,0.459602,90,105,136
-22.84538841,8.09625244,3.37308717,0.348760,58,60,69
-22.84711647,8.09153938,3.37699413,0.432258,67,74,90
-22.84799957,8.08912945,3.38190699,0.509896,68,77,95
-22.84840775,8.08800793,3.38740015,0.368292,77,86,103
-22.79157639,8.24284172,4.13956690,0.328496,35,41,53
-22.79130936,8.24354649,4.14634228,0.494270,36,33,39
-22.79054070,8.24560165,4.15400219,0.382208,33,35,49
-22.78565598,8.25908566,4.21976709,0.431525,51,44,48
-22.78251266,8.26761723,4.25049829,0.362188,38,35,36
-22.78195572,8.26919746,4.25797510,0.381476,42,36,34
-22.78046989,8.27322578,4.27323389,0.380987,57,57,37
-22.78087234,8.27214622,4.27927589,0.419562,61,58,40
-22.78233528,8.26813793,4.29029322,0.402472,47,44,42
-22.96145821,7.76476383,0.61820400,0.574105,67,44,41
-22.94997025,7.79640245,1.38898695,0.325567,121,119,155
-22.36624336,9.37658978,1.70099902,0.399542,216,203,213
-22.36725235,9.37404537,1.70661402,0.352422,218,204,216
-23.09467697,7.40479708,1.51337695,0.408331,217,206,217
-22.44475937,9.16435909,1.99924695,0.329473,216,204,215
-22.45395088,9.13944817,1.99967396,0.365118,215,205,215
-22.45512772,9.13627338,2.00501513,0.339239,214,201,214
-22.46175957,9.11859989,2.06766701,0.381476,209,198,209
-22.95000648,7.79695225,1.99457800,0.346563,113,94,104
-22.92506790,7.86454058,2.12366700,0.344854,93,55,39
-22.92582703,7.86242151,2.12836719,0.372930,103,67,57
-22.81901550,8.15190029,2.47150707,0.355596,44,35,21
-23.07008553,7.47223616,2.34281421,0.370977,168,156,168
-23.07090187,7.46999311,2.34717798,0.423957,209,202,209
-22.84485626,8.08223057,2.79764819,0.373663,83,101,139
-22.84438324,8.08351803,2.80948901,0.363409,86,103,141
-22.84425926,8.08380604,2.81534815,0.329473,83,100,138
-22.84408760,8.08428478,2.83262110,0.340459,84,103,142
-22.84384727,8.08512402,2.84434009,0.338262,82,102,141
-22.84407043,8.08456516,2.84980202,0.377081,81,100,141
-22.84099579,8.09273624,2.93317604,0.344121,91,106,141
-23.14582253,7.26791143,2.96894312,0.409796,57,50,52
-22.84125710,8.09257507,3.37229419,0.330938,61,65,78
-22.84268379,8.08867073,3.37656617,0.451789,57,62,82
-22.84372520,8.08586884,3.38123608,0.449104,59,70,90
-22.84462738,8.08348465,3.38621020,0.378302,67,79,96
-22.63272667,8.65762043,4.03650904,0.322881,42,35,40
-22.78775024,8.23816109,4.13807106,0.377569,29,29,37
-22.78744316,8.23901367,4.14499903,0.458869,55,50,49
-22.78673363,8.24094486,4.15244532,0.432746,70,62,66
-22.78135300,8.25538540,4.22529125,0.345830,44,34,31
-22.77850723,8.26330471,4.24921608,0.341924,41,39,36
-22.77799225,8.26473713,4.25651026,0.396368,50,50,38
-22.93249321,7.84745169,5.10962915,0.372442,75,83,103
-22.93271828,7.84689379,5.12320900,0.360723,77,79,104
-22.26068306,9.64494801,1.68851697,0.341924,130,115,121
-22.94536972,7.79497194,1.38898695,0.410773,93,63,82
-22.26676750,9.62877083,1.79297900,0.353643,215,202,208
-22.26599121,9.63086605,1.79972303,0.337530,221,208,212
-22.77136612,8.26547909,1.73606300,0.367071,217,206,217
-22.44153595,9.15675259,1.95545399,0.386358,216,205,215
-22.44170761,9.15627575,1.96146595,0.356329,215,204,213
-22.44312859,9.15241337,1.97272694,0.337041,216,204,213
-22.44929886,9.13574791,1.99323499,0.358526,216,203,213
-22.49945641,9.00058174,2.27530909,0.372930,212,198,208
-22.94693565,7.79149914,1.99363196,0.432502,180,169,178
-22.91981506,7.86476564,2.11890602,0.327764,170,149,137
-22.92069244,7.86239958,2.12354517,0.471809,200,175,161
-23.06705475,7.46713781,2.34162402,0.437873,164,148,148
-23.06787109,7.46489382,2.34601808,0.385382,203,195,203
-22.84088516,8.07866192,2.79127002,0.361212,82,101,139
-22.84058952,8.07942772,2.79725099,0.390265,85,102,140
-22.84055901,8.07948971,2.80301905,0.392218,83,101,138
-22.84019279,8.08046436,2.80906105,0.423713,83,101,140
-22.83983612,8.08150578,2.83219409,0.372930,85,104,144
-22.83943939,8.08254242,2.84397411,0.357794,85,106,144
-22.83950615,8.08237743,2.84961915,0.432746,83,105,144
-22.83923340,8.08312511,2.85560107,0.363653,83,103,141
-22.83578110,8.09250927,2.92792702,0.331182,87,103,140
-22.83625412,8.09122181,2.93320704,0.477180,88,104,142
-22.83780861,8.08718204,2.95472217,0.434211,88,104,140
-23.65218353,5.88637400,2.22675610,0.383429,40,36,32
-23.14413261,7.25955009,2.97126198,0.349493,60,61,69
-22.83784676,8.08738232,3.37671900,0.400031,61,63,88
-22.83917999,8.08370399,3.38108301,0.534798,56,64,86
-22.84014893,8.08111191,3.38590503,0.478889,62,71,95
-22.62348175,8.66702652,4.01542091,0.395636,59,54,46
-23.31907463,6.78720713,3.18561816,0.340948,99,110,131
-22.78262711,8.23724937,4.14502907,0.428595,49,45,41
-22.78208160,8.23874474,4.15223217,0.400031,89,78,78
-22.77690506,8.25279999,4.22486305,0.388312,52,41,33
-22.77338409,8.26254463,4.25629711,0.387091,51,49,44
-22.85526848,8.04107094,4.15565014,0.326543,63,54,40
-22.85836601,8.03272820,4.15751123,0.340459,55,51,64
-22.86085510,8.02604675,4.16022730,0.346563,52,55,65
-22.70425797,8.45067501,5.57038307,0.345830,81,94,110
-23.46169281,6.40305328,4.24982691,0.349004,72,82,98
-23.46230888,6.40134954,4.25434303,0.359747,78,91,106
-22.78540421,8.21195316,1.06357801,0.369757,65,45,62
-22.78578186,8.21089268,1.06870496,0.380011,77,60,87
-22.25360107,9.64649868,1.66379797,0.323369,119,106,108
-22.34539032,9.39898968,1.63196802,0.353887,34,31,29
-22.34500504,9.40009212,1.63831592,0.416388,130,119,123
-22.34553909,9.39868259,1.64420497,0.391730,130,114,122
-22.34679413,9.39525700,1.64972901,0.377813,147,137,142
-22.34716225,9.39428139,1.65577197,0.389288,215,203,215
-22.34231567,9.40731335,1.66425598,0.350713,216,204,217
-22.93989182,7.79575300,1.38938403,0.421759,125,92,99
-22.25878525,9.63255310,1.75608301,0.376104,216,205,215
-22.76351547,8.27173901,1.73774195,0.334600,216,206,216
-22.44427299,9.13275814,1.96262598,0.349004,215,205,214
-22.44868660,9.12086773,2.00840211,0.443732,218,203,215
-22.44960403,9.11835384,2.01386499,0.328740,216,202,214
-22.49132156,9.00617313,2.27112818,0.342657,214,202,214
-22.94172668,7.79138088,1.99393702,0.360967,192,187,200
-22.91568375,7.86158991,2.12375903,0.413214,217,195,191
-22.81206703,8.14149952,2.47483301,0.399542,130,109,89
-23.06405258,7.46182489,2.34037209,0.421027,138,138,159
-23.06391525,7.46219873,2.34562111,0.372686,116,109,108
-22.83869171,8.06984329,2.77161598,0.368048,85,102,139
-22.83640099,8.07617950,2.78525805,0.339971,83,101,140
-22.83569145,8.07811069,2.79731202,0.324590,86,103,142
-22.83548927,8.07865047,2.80320215,0.370733,85,103,142
-22.83559608,8.07833767,2.80872607,0.478645,85,104,143
-22.83532906,8.07904243,2.81479907,0.371954,83,101,139
-22.83515549,8.07936764,2.82056713,0.325078,86,103,142
-22.83497810,8.07989025,2.82645607,0.341436,85,105,144
-22.83492470,8.07996941,2.83219409,0.325322,84,102,143
-22.83477974,8.08058071,2.84382105,0.353887,84,105,144
-22.83458328,8.08107758,2.84971118,0.341680,83,103,141
-22.83457184,8.08116245,2.85544801,0.403937,85,104,142
-22.83116722,8.09035778,2.93345118,0.408331,85,102,142
-22.83211327,8.08778381,2.93824220,0.520638,87,106,145
-22.83275414,8.08606148,2.94333911,0.534798,87,106,145
-22.83260727,8.08652020,2.94925904,0.530159,88,104,140
-22.83275414,8.08606148,2.95490503,0.422248,88,100,133
-23.13976669,7.25817060,2.97132301,0.376104,69,72,82
-22.83269310,8.08668327,3.37714601,0.324834,63,72,91
-22.83418655,8.08261395,3.38132715,0.492561,59,65,88
-22.83505821,8.08044338,3.38633204,0.405646,64,70,91
-23.65881348,5.85827446,2.44227099,0.324346,64,62,59
-22.61885643,8.66396046,4.00818920,0.354864,80,69,86
-22.62164688,8.65647030,4.03104591,0.379522,41,35,28
-22.62198830,8.65536118,4.03714991,0.375616,48,44,39
-22.62339401,8.65178013,4.04200220,0.324346,60,51,51
-22.77752876,8.23612213,4.14524317,0.387579,60,54,47
-22.77714920,8.23718262,4.15229321,0.429572,66,56,46
-22.77171707,8.25185680,4.22526026,0.329229,56,46,38
-22.76796532,8.26220322,4.25699806,0.384649,46,43,36
-22.84778023,8.04670334,4.15955591,0.327764,68,51,51
-22.86502457,8.00025940,4.14704418,0.327031,39,41,48
-23.07787132,7.42620420,4.02417994,0.371466,40,34,27
-22.77998924,8.21141624,1.05851197,0.421759,35,28,32
-22.78014946,8.21102428,1.06373096,0.484260,54,44,53
-22.33137894,9.41917515,1.59903896,0.370489,214,206,216
-22.33472633,9.41025639,1.62207997,0.366827,121,110,115
-22.33614731,9.40639400,1.62754297,0.366827,115,112,115
-22.24584389,9.64972401,1.95688903,0.342657,224,211,219
-22.44267082,9.12009907,1.98444593,0.323125,197,183,194
-22.44583893,9.11154747,1.98856592,0.368536,202,187,199
-22.44752121,9.10702419,1.99366200,0.402960,213,202,212
-22.44924164,9.10254860,2.11991310,0.359747,65,49,42
-22.48336601,9.01074409,2.25467920,0.366094,216,205,213
-22.93624496,7.79185772,1.99451697,0.397101,183,179,194
-22.91016769,7.86217070,2.11909008,0.399786,210,198,210
-22.91077614,7.86050940,2.12394214,0.341436,210,199,206
-22.87539864,7.95589399,2.28574610,0.336553,194,183,174
-22.80858994,8.13581848,2.47916603,0.346807,87,58,56
-22.70440483,8.41624069,2.63267016,0.348272,104,78,69
-23.05976105,7.45969439,2.34528613,0.391730,168,161,158
-22.83273125,8.07114887,2.75568604,0.359258,83,100,137
-22.83464050,8.06606770,2.75959206,0.443488,85,102,141
-22.83380318,8.06828594,2.77167702,0.391974,83,100,138
-22.83215141,8.07274914,2.77897120,0.390509,86,103,141
-22.83131027,8.07501030,2.78547120,0.345098,85,101,139
-22.83066368,8.07662392,2.79178810,0.362188,85,103,139
-22.83046150,8.07716274,2.79767799,0.330694,87,103,142
-22.83042526,8.07726765,2.80338502,0.334112,87,105,143
-22.83032036,8.07757854,2.80921412,0.371221,82,102,140
-22.83011818,8.07812023,2.81510401,0.340459,88,105,143
-22.83001328,8.07843113,2.82090211,0.387091,83,99,139
-22.82971954,8.07915497,2.82688403,0.334112,84,102,143
-22.82972717,8.07926559,2.83262110,0.392462,85,104,145
-22.82938576,8.08022118,2.83866310,0.359747,82,101,140
-22.82935524,8.08028316,2.84434009,0.370245,86,104,143
-22.82917786,8.08080292,2.85026002,0.350713,82,100,140
-22.82574272,8.09005928,2.93406105,0.403449,87,105,145
-22.82716370,8.08619785,2.93830299,0.541878,85,104,144
-22.82741928,8.08557796,2.94379711,0.463752,89,108,150
-22.82725334,8.08601379,2.94974709,0.428351,89,106,145
-22.82748985,8.08536911,2.95530200,0.388800,91,102,132
-22.83347702,8.06961536,3.26377320,0.341924,57,66,66
-23.13499451,7.25787115,2.97187304,0.388067,40,42,54
-22.82743454,8.08595085,3.37760401,0.331914,70,75,95
-22.82876778,8.08227253,3.38196802,0.420050,66,73,87
-22.82957268,8.08011627,3.38697314,0.368536,36,36,55
-22.77151489,8.23716164,4.14673805,0.475471,57,52,38
-22.76517296,8.25430584,4.22104931,0.411505,59,51,36
-22.76195717,8.26304626,4.25187111,0.329717,46,35,36
-23.00066185,7.60395861,1.26090503,0.351934,42,30,28
-22.24366379,9.63781548,1.69458997,0.331182,212,201,211
-22.24352646,9.63818932,1.70096803,0.372198,216,203,214
-22.24332047,9.63877201,1.70740700,0.394415,217,204,216
-22.93033981,7.79308367,1.39460194,0.479377,221,209,216
-22.44469833,9.09818745,2.10111499,0.324346,216,206,216
-22.44540405,9.09629917,2.11887598,0.337041,62,39,32
-22.90518188,7.86134291,2.11933398,0.390997,212,203,215
-22.80373573,8.13400650,2.47916603,0.445197,79,55,64
-22.69703674,8.42097569,2.74595118,0.337041,28,28,32
-22.82655144,8.07312298,2.75141406,0.440314,86,102,141
-22.82746506,8.07065392,2.75620508,0.556283,86,101,139
-22.82837677,8.06818295,2.76099610,0.489876,87,104,142
-22.82820511,8.06866169,2.77244020,0.351202,85,102,141
-22.82664680,8.07289600,2.77970409,0.389776,82,100,138
-22.82571030,8.07538605,2.78623414,0.363409,84,104,139
-22.82517815,8.07679558,2.79249001,0.327520,87,105,141
-22.82507133,8.07710838,2.79828906,0.395148,86,104,140
-22.82460785,8.07831001,2.80442309,0.337041,85,102,139
-22.82466888,8.07818699,2.81006908,0.412238,84,104,140
-22.82446671,8.07872581,2.81589699,0.379034,88,105,146
-22.82426453,8.07926559,2.82178712,0.340948,88,105,143
-22.82408905,8.07978725,2.82770801,0.446906,84,101,141
-22.82403374,8.07986736,2.83344507,0.402960,85,103,143
-22.82388115,8.08036900,2.83936501,0.401740,85,102,141
-22.82392120,8.08022213,2.84504199,0.326055,86,103,143
-22.82354927,8.08123970,2.85682106,0.370245,84,102,141
-22.82184410,8.08593464,2.94468212,0.578256,89,105,143
-22.82151222,8.08680439,2.95075512,0.466926,41,52,79
-22.82167816,8.08636856,2.95637012,0.423224,49,58,80
-23.13041496,7.25711679,2.97223902,0.363897,27,29,42
-22.82191277,8.08607388,3.37839699,0.465217,68,77,98
-22.82271957,8.08391571,3.38340211,0.582406,69,78,94
-22.82367134,8.08129978,3.38822412,0.339239,72,54,54
-22.77862167,8.20277023,3.76777101,0.392218,92,90,120
-22.76449776,8.24104881,4.14982128,0.402228,85,79,62
-22.75941086,8.25476646,4.21564722,0.322881,73,65,52
-22.84789276,8.01733685,4.37113428,0.326543,69,60,46
-22.77688217,8.18983078,0.83613098,0.347051,51,41,41
-22.99641991,7.60179090,1.26578796,0.326543,23,13,32
-22.23361397,9.64722633,1.67154896,0.346075,94,83,88
-22.23347664,9.64759922,1.67792702,0.369757,134,126,126
-22.23307991,9.64863586,1.68445802,0.326543,141,135,139
-22.92489433,7.79360962,1.39508998,0.507698,210,199,207
-22.45418358,9.05612087,2.10972118,0.373175,50,23,23
-22.83078384,8.04636478,1.88651502,0.388312,209,208,222
-22.97671700,7.65520334,1.99997902,0.341924,85,76,76
-22.89895821,7.86365938,2.11530519,0.343633,208,200,208
-22.89973450,7.86156321,2.11997509,0.407111,217,204,217
-22.79872894,8.13284874,2.47950220,0.391730,88,72,77
-22.82114410,8.07304478,2.75211620,0.480842,86,100,138
-22.82174110,8.07147026,2.75721216,0.631724,83,96,132
-22.82251167,8.06941605,2.76215601,0.521859,81,94,123
-22.82215500,8.07030487,2.77387500,0.382452,78,96,132
-22.82043266,8.07497501,2.78122902,0.408820,85,103,142
-22.81956673,8.07725620,2.78772998,0.363409,85,103,140
-22.81936646,8.07779503,2.79362011,0.344121,86,104,140
-22.81892776,8.07897758,2.79975414,0.388312,86,103,141
-22.81874466,8.07954121,2.80558205,0.378546,84,102,140
-22.81885719,8.07918739,2.81116700,0.426398,89,106,146
-22.81841850,8.08036995,2.81730103,0.332647,87,105,145
-22.81831169,8.08068180,2.82310009,0.339483,86,105,144
-22.81780815,8.08203125,2.84070802,0.334112,85,102,142
-22.81751251,8.08279705,2.85248804,0.366827,88,104,144
-22.81766701,8.08244705,2.85807300,0.362921,85,100,141
-22.81525040,8.08907318,2.94666505,0.514290,40,49,82
-22.81550598,8.08845425,2.95218921,0.408331,40,47,70
-22.81557846,8.08824539,2.95789599,0.361944,32,40,66
-23.12536621,7.25760794,2.97324610,0.332647,44,42,49
-22.81395340,8.09299469,3.37641406,0.370245,69,78,98
-22.81546783,8.08890533,3.38059521,0.449836,73,83,104
-22.81651115,8.08610439,3.38532519,0.519905,66,75,99
-22.75684738,8.24676895,4.14734888,0.377081,63,75,79
-22.75621223,8.24844933,4.15473413,0.444465,90,88,74
-22.93391609,7.77198553,3.97617602,0.363653,39,33,28
-22.83946037,8.02554417,4.37043190,0.353399,63,57,47
-22.22352409,9.65643406,1.66092896,0.406134,37,30,28
-22.22381592,9.65571117,1.66712403,0.354376,76,71,65
-22.91935349,7.79436255,1.39557898,0.360479,207,204,217
-22.43816566,9.08231068,2.02567506,0.328496,219,208,219
-22.44128227,9.07399368,2.02982616,0.332403,220,207,216
-22.45033073,9.05000019,2.05439210,0.350958,219,208,219
-22.45335197,9.04190922,2.05848217,0.364385,222,210,221
-22.82497025,8.04721260,1.88178492,0.353643,118,120,142
-22.97235298,7.65312910,1.99473000,0.431525,112,97,107
-22.97369766,7.64951754,1.99888098,0.600717,93,63,83
-22.96833038,7.66387415,2.00794411,0.352178,75,58,65
-22.89299774,7.86561871,2.11103320,0.338262,204,201,212
-22.89353752,7.86416674,2.11594605,0.359503,212,201,212
-22.79374695,8.13151836,2.47965503,0.416388,194,181,180
-22.68185997,8.43097496,2.65107203,0.351690,94,85,82
-23.04580116,7.45694637,2.34611011,0.431281,25,23,28
-22.81409073,8.07718945,2.74857616,0.398566,87,103,142
-22.81493187,8.07492828,2.75342798,0.509651,85,97,133
-22.81569672,8.07291698,2.75837207,0.608042,86,99,131
-22.81686974,8.06978512,2.76291919,0.364874,51,59,81
-22.81539536,8.07372570,2.77570605,0.429816,36,49,78
-22.81398582,8.07750225,2.78278613,0.453010,78,96,131
-22.81328583,8.07934761,2.78916407,0.368292,86,103,143
-22.81290817,8.08055973,2.79526711,0.383673,88,105,144
-22.81263542,8.08130836,2.80124903,0.338750,88,105,143
-22.81236839,8.08186054,2.80707812,0.456428,84,102,143
-22.81219101,8.08238125,2.81299806,0.333379,86,103,146
-22.81180382,8.08333111,2.81904101,0.394659,88,108,149
-22.81169891,8.08364391,2.82487011,0.359991,83,103,142
-22.81166267,8.08374882,2.83060718,0.381476,86,105,145
-22.80880356,8.09160042,2.94828320,0.487434,45,52,78
-22.80873299,8.09180832,2.95417309,0.384649,76,83,104
-23.12043571,7.25769997,2.97397804,0.337285,39,37,42
-22.80763054,8.09523201,3.37818408,0.455207,69,77,98
-22.80897903,8.09157944,3.38251710,0.520394,74,84,105
-22.80964470,8.08983898,3.38770509,0.396124,68,76,100
-22.74791527,8.25578213,4.14658594,0.368292,40,52,40
-22.74723434,8.25765228,4.15409327,0.385626,63,68,73
-22.74681282,8.25870705,4.16114330,0.481575,85,85,71
-22.74629211,8.26018333,4.16843605,0.525277,91,88,76
-22.74415207,8.26571369,4.17789698,0.362432,75,66,58
-22.82742882,8.04324818,4.37507105,0.323613,42,37,31
-22.57758141,8.71243000,5.10499001,0.380011,42,37,34
-23.36604691,6.60204363,4.36042309,0.332647,84,87,103
-22.77149963,8.17480373,0.84528595,0.347295,45,35,34
-22.21750832,9.65501308,1.65470397,0.432013,32,30,28
-22.21753883,9.65495205,1.66102099,0.364874,40,38,31
-22.70318222,8.35792446,1.53928602,0.342657,220,206,217
-22.70452881,8.35431576,1.54404700,0.329961,219,205,216
-23.05532837,7.41738939,1.50397694,0.445441,218,207,217
-22.96801567,7.65103483,1.99451697,0.515999,112,101,106
-22.96821022,7.65053844,1.99952197,0.475715,76,71,73
-22.88675880,7.86821699,2.10688210,0.360479,161,174,198
-22.88736916,7.86655521,2.11170411,0.335821,196,198,212
-22.81822586,8.05150700,2.38828516,0.329717,37,30,24
-22.78862000,8.13060665,2.47989917,0.497200,127,127,150
-22.67644119,8.43048000,2.64560914,0.365118,75,63,56
-22.68082428,8.41880226,2.75303102,0.351934,50,44,46
-22.80786133,8.07954979,2.75004005,0.436408,89,104,143
-22.80870247,8.07728767,2.75492311,0.487922,60,71,100
-22.80937767,8.07546139,2.75992799,0.461067,67,74,101
-22.80991745,8.07400799,2.77073121,0.439582,47,52,68
-22.80853462,8.07756996,2.77768898,0.451789,57,67,95
-22.80723190,8.08118534,2.78467798,0.450813,86,104,140
-22.80639267,8.08344841,2.79117799,0.381231,84,102,143
-22.80619049,8.08398724,2.79712915,0.393927,87,103,143
-22.80608368,8.08429909,2.80292702,0.344854,89,107,147
-22.80564499,8.08548355,2.80906105,0.376349,91,108,148
-22.80527878,8.08645725,2.81513405,0.394903,89,106,145
-22.80517197,8.08677006,2.82093310,0.338262,58,72,106
-22.80489922,8.08751774,2.82688403,0.378302,87,104,140
-22.79882813,8.10376167,2.93049121,0.355840,89,103,143
-22.80048561,8.09925747,2.93455005,0.466926,93,106,146
-22.80154610,8.09647942,2.93931007,0.679576,38,49,78
-22.80178261,8.09583664,2.94483399,0.477668,50,56,75
-22.80184555,8.09586525,2.95060205,0.391730,61,67,87
-22.80224609,8.09478760,2.95597315,0.378790,79,85,110
-22.79932213,8.10280418,3.37626100,0.475227,69,77,94
-22.80082893,8.09895325,3.38056421,0.412726,68,77,100
-22.80180168,8.09636021,3.38538599,0.435676,67,76,100
-22.75270844,8.22774792,3.77002907,0.362921,77,76,91
-23.29219627,6.78637552,3.18448901,0.333135,67,71,75
-22.73723030,8.26952744,4.15482616,0.381964,45,43,38
-22.73699379,8.27017117,4.16166210,0.583871,54,54,48
-22.73566055,8.27369595,4.16999292,0.430549,61,57,51
-23.35998917,6.60573244,3.46897411,0.339483,40,34,27
-22.81998825,8.04869080,4.37259912,0.344854,72,63,54
-22.74228477,8.25656700,4.79837990,0.346319,40,37,34
-22.56917191,8.71946335,5.09577417,0.357061,49,46,40
-22.90928841,7.79328060,1.40107203,0.401007,218,208,222
-22.69940376,8.35290241,1.53870595,0.356573,221,207,218
-22.69990540,8.35155487,1.54392493,0.430549,221,208,218
-22.70007324,8.35111904,1.54923499,0.331670,216,205,214
-23.04832458,7.42265081,1.50062001,0.438605,218,207,217
-23.04956818,7.41931057,1.50477099,0.403204,219,207,217
-22.96397591,7.64797974,1.99418092,0.494759,98,93,93
-22.96269226,7.65146732,2.00031495,0.400275,36,31,31
-22.87993622,7.87210941,2.10319018,0.382452,111,123,150
-22.88097954,7.86930799,2.10770607,0.547982,84,110,145
-22.88084793,7.86963892,2.11310816,0.387579,118,137,164
-22.84327316,7.96997976,2.28190112,0.360479,47,34,29
-22.78378868,8.12877464,2.47986817,0.346807,102,114,111
-22.80088615,8.08344364,2.74643898,0.489632,90,106,145
-22.80150986,8.08184910,2.75153613,0.653941,98,111,146
-22.80225563,8.07981491,2.75647998,0.573129,88,99,131
-22.80245018,8.07931805,2.76194215,0.415412,84,94,117
-22.80248642,8.07921314,2.76761913,0.493050,46,48,57
-22.80218887,8.07997990,2.77360010,0.436652,48,52,58
-22.80053711,8.08444214,2.78083301,0.439094,46,51,65
-22.79974365,8.08651447,2.78727198,0.395880,49,57,79
-22.79904366,8.08835888,2.79365015,0.338994,84,103,142
-22.79870033,8.08931637,2.79969311,0.370733,86,105,145
-22.79188728,8.10755253,2.93265820,0.422004,77,91,126
-22.79340363,8.10346317,2.93686914,0.446174,51,62,94
-22.79372978,8.10263443,2.94233203,0.510384,27,38,66
-22.79406166,8.10176468,2.94779420,0.456184,41,48,67
-22.79464912,8.10027504,2.95301318,0.378546,92,101,129
-22.79220009,8.10715771,3.37891603,0.347539,68,77,98
-22.79364586,8.10327721,3.38321900,0.494759,67,76,99
-22.76099586,8.19064045,3.74064112,0.324590,50,63,76
-22.73361588,8.26406860,4.08158302,0.386847,42,37,26
-22.72766685,8.27987194,4.14823389,0.432013,49,40,33
-22.72681999,8.28217697,4.15595531,0.481331,39,36,30
-22.72656059,8.28283882,4.16279125,0.499153,46,39,33
-22.72478104,8.28758907,4.17182398,0.337530,49,47,41
-22.76461792,8.16388893,0.84977198,0.376837,44,33,32
-22.76745987,8.15651321,0.97944099,0.419318,166,112,110
-22.28521919,9.44003582,1.54328394,0.387579,117,90,89
-22.28469086,9.44140339,1.54969299,0.322881,114,81,80
-22.90328789,7.79538679,1.40180397,0.329961,216,208,221
-22.21076393,9.63841438,1.94455898,0.326787,209,199,210
-23.04202461,7.42637205,1.49692798,0.369024,221,210,219
-22.40311813,9.12676620,2.01310205,0.366583,220,208,220
-22.40416145,9.12396526,2.02463818,0.404669,223,212,223
-22.89632797,7.81458282,2.00345802,0.328008,214,197,205
-22.87442589,7.87279987,2.10389209,0.355596,132,132,154
-22.77854156,8.12830353,2.48035717,0.328984,42,54,42
-22.65612030,8.45427799,2.62537599,0.355840,90,76,59
-22.65700340,8.45186901,2.63044214,0.385870,161,145,137
-22.65769196,8.45010853,2.63578320,0.402716,157,137,128
-22.79503441,8.08474255,2.73041821,0.339727,72,75,105
-22.79417419,8.08697987,2.74256420,0.442756,83,100,140
-22.79432487,8.08667278,2.74817920,0.605112,89,106,143
-22.79490280,8.08507252,2.75330615,0.634409,85,100,130
-22.79550171,8.08349800,2.75837207,0.661997,65,77,102
-22.79537201,8.08382893,2.76417017,0.434943,96,105,125
-22.79533577,8.08393288,2.76993799,0.447395,90,96,111
-22.79239273,8.09177399,2.78409815,0.385138,43,48,58
-22.79226303,8.09210491,2.78995705,0.358282,43,52,69
-22.79165649,8.09372330,2.79624414,0.341192,62,77,106
-22.78697968,8.10647202,2.95026612,0.383185,87,101,130
-22.78818703,8.10323524,2.95484400,0.329473,99,112,145
-22.78521538,8.11128902,3.38151002,0.416388,65,78,99
-22.55721855,8.71883106,4.00806713,0.331426,69,72,82
-22.55849266,8.71542835,4.01316309,0.331426,65,58,60
-22.72356796,8.27628708,4.07596827,0.330449,71,64,48
-22.71777344,8.29174042,4.14234400,0.410529,110,96,83
-22.71729851,8.29302788,4.14954615,0.531380,97,83,74
-22.71689606,8.29410648,4.15662622,0.446662,55,43,29
-22.71565819,8.29740429,4.16489601,0.354131,59,52,46
-22.71425247,8.30113792,4.17337990,0.330449,50,44,38
-22.76096725,8.15888214,0.84934497,0.349493,42,32,31
-22.76324463,8.15297794,0.97400898,0.343145,143,105,108
-22.96627045,7.61408949,1.25455701,0.367315,114,83,81
-22.28889847,9.41300869,1.61292493,0.337530,135,107,118
-22.89750481,7.79682636,1.40232301,0.571908,215,211,227
-23.03454590,7.43276834,1.49369299,0.331182,216,208,214
-23.03549576,7.43034649,1.49802601,0.417121,218,207,216
-22.39531517,9.13083458,2.00229907,0.375616,224,211,221
-22.39063454,9.14327908,2.01127100,0.326543,221,210,220
-22.39528084,9.13093853,2.01453614,0.377813,220,209,219
-22.39458275,9.13293743,2.02106714,0.380987,218,209,220
-22.86795998,7.87580299,2.09983301,0.373663,120,94,107
-22.82942200,7.97834539,2.27997804,0.348760,144,128,121
-22.77018547,8.13591194,2.48334718,0.338262,59,53,45
-22.64586067,8.46611977,2.61225414,0.353155,49,43,39
-22.64661980,8.46415138,2.61747217,0.326543,55,59,61
-22.64674187,8.46370983,2.62317920,0.368536,98,96,111
-22.78783417,8.08919525,2.73267603,0.364141,94,98,125
-22.78762627,8.08977699,2.73856616,0.354620,90,104,142
-22.78718185,8.09100151,2.74466920,0.370001,87,104,145
-22.78733635,8.09050083,2.75016308,0.387091,90,107,135
-22.78762627,8.08977699,2.75559521,0.427131,83,97,122
-22.78791809,8.08905411,2.76096606,0.402716,80,86,108
-22.78769302,8.08961105,2.76685619,0.334844,72,79,95
-22.70843887,8.30148411,4.13535500,0.374151,47,43,34
-22.70782471,8.30318832,4.14277124,0.440558,46,40,30
-22.70712090,8.30507565,4.15027809,0.435676,108,101,92
-22.70630074,8.30716705,4.15790796,0.343145,62,53,42
-22.70522308,8.31007290,4.16599512,0.340459,51,42,31
-22.75805664,8.15203571,0.85407495,0.354864,43,32,31
-22.19825363,9.63640118,1.65921998,0.323125,134,114,137
-22.19749451,9.63836956,1.66590297,0.429816,144,123,147
-22.19733429,9.63876247,1.67228198,0.420050,211,198,212
-22.89134979,7.79912901,1.40308595,0.448371,216,209,223
-23.02863121,7.43538666,1.49457800,0.335576,219,209,217
-22.86116791,7.87978601,2.09086108,0.332403,163,163,172
-22.86168289,7.87835217,2.09577417,0.398077,156,156,158
-22.82195854,7.98380804,2.27674317,0.361700,64,50,58
-22.75937080,8.14998913,2.48276711,0.329961,138,118,104
-22.63713455,8.47404957,2.61542702,0.335576,56,48,43
-22.64000893,8.46641827,2.62473512,0.356085,83,84,95
-22.63929176,8.46839142,2.63123608,0.392462,228,217,221
-22.78677177,8.07738876,2.56565309,0.357794,36,26,28
-22.78090668,8.09305096,2.73462915,0.327764,76,82,111
-22.78023720,8.09483433,2.74668407,0.335088,90,108,145
-22.78041649,8.09446716,2.75791407,0.367071,73,87,112
-23.29410172,6.73258543,2.39844704,0.327520,46,56,90
-22.73992729,8.20208549,3.02329516,0.328008,91,106,141
-23.46760750,6.27265596,2.36625099,0.344854,79,69,61
-23.46742439,6.27321959,2.37092113,0.358770,54,44,36
-22.55588722,8.69068813,4.00303078,0.336309,64,59,52
-22.69894218,8.31166267,4.13514233,0.462287,53,43,28
-22.69835472,8.31315327,4.14246607,0.403693,49,40,29
-22.69605064,8.31942463,4.15879297,0.340703,112,107,102
-22.76961899,8.12465096,4.37403297,0.336553,40,35,25
-22.78546906,8.08350849,5.24906397,0.333623,59,69,99
-22.78756523,8.07797241,5.25968409,0.326055,71,76,87
-22.95462036,7.61745691,1.25089502,0.340459,97,70,73
-22.19089508,9.63824272,1.65992200,0.372930,138,117,135
-22.88541412,7.80072260,1.40375698,0.473274,220,211,224
-22.94632721,7.64017820,1.98362195,0.324102,152,130,136
-22.94685364,7.63881063,1.98835194,0.403204,113,84,82
-22.85566711,7.88023996,2.09147120,0.349004,122,119,131
-22.81591606,7.98556185,2.27781105,0.382452,68,58,65
-22.78678894,8.06267834,2.37800121,0.331670,36,23,23
-22.75399971,8.14945698,2.48322511,0.322881,154,133,106
-22.63342476,8.46866512,2.62015820,0.338994,117,100,92
-22.63639450,8.46080589,2.62937403,0.367315,112,105,112
-22.78156853,8.07657528,2.55478907,0.329717,44,34,30
-22.78260231,8.07401180,2.55955005,0.377813,43,34,33
-22.78257179,8.07407379,2.56516504,0.375128,50,40,40
-22.78231049,8.07473564,2.57099414,0.334356,40,32,32
-22.86040688,7.86802101,2.56211305,0.342901,35,25,25
-22.86597633,7.85327721,2.56254005,0.408331,41,31,34
-23.08839798,7.26533270,2.97077417,0.342657,44,45,65
-22.68937302,8.32205009,4.13502026,0.348516,59,53,37
-22.68957329,8.32151127,4.14124489,0.337041,55,49,31
-22.68739319,8.32734108,4.15738916,0.333135,55,49,43
-22.68346405,8.33770752,4.18909693,0.343877,52,42,33
-22.68232155,8.34077835,4.19730616,0.342168,37,31,29
-22.68152618,8.34284973,4.20496607,0.339239,45,39,34
-22.84486389,7.91096735,4.38288307,0.342901,73,67,55
-22.82465363,7.96476889,4.73310328,0.359991,69,63,46
-23.34319496,6.59257936,4.20215797,0.324102,56,59,80
-22.75226593,8.13813019,0.85816395,0.358770,44,32,32
-22.76653290,8.10074043,1.12440002,0.364874,94,68,68
-22.75333023,8.13565731,1.13990200,0.331670,87,62,60
-22.88017845,7.80081797,1.40409303,0.339727,221,209,219
-22.13830948,9.76057434,2.17338014,0.351934,225,214,225
-22.94202995,7.63808966,1.97840297,0.390265,109,99,103
-22.94272423,7.63628721,1.98301196,0.324834,198,187,190
-22.84991455,7.88146448,2.08698511,0.342412,136,125,133
-22.80844688,7.99106646,2.27445412,0.388067,148,132,144
-22.62955284,8.46367264,2.61338305,0.344854,67,56,56
-22.77717400,8.07390881,2.55448413,0.346319,46,38,34
-22.77787590,8.07221603,2.55961108,0.374395,36,30,27
-22.77777481,8.07248688,2.56525707,0.362432,34,27,26
-22.85783768,7.86106682,2.56037402,0.400275,38,31,30
-23.08234406,7.26867247,2.96229005,0.392950,80,85,101
-23.08250809,7.26823759,2.96741700,0.436408,35,39,47
-23.08207703,7.26937771,2.98386598,0.422492,56,49,52
-23.08257484,7.26807261,2.98862720,0.354620,42,35,34
-23.07963562,7.27586985,2.99732399,0.328740,40,32,34
-22.68137169,8.32861710,4.13944530,0.334844,58,56,39
-22.67413521,8.34775543,4.19532204,0.358038,63,52,41
-22.67313385,8.35041046,4.20334911,0.357794,54,52,48
-22.42568970,9.00477982,5.17185402,0.383917,75,61,65
-22.52526093,8.74160099,5.07230616,0.404669,65,58,50
-22.52805328,8.73426151,5.07520533,0.396368,49,41,27
-22.74963188,8.13034058,0.86271095,0.342657,45,34,33
-22.77264214,8.06980991,1.08384192,0.357061,89,69,62
-22.77182198,8.07190132,1.08936501,0.461555,69,52,47
-22.77438354,8.06516361,1.09357703,0.380987,67,51,49
-22.73773575,8.16175079,1.13349402,0.326299,104,74,72
-22.87319565,7.80510283,1.40522194,0.422248,221,212,223
-22.39263725,9.07217693,1.98475099,0.354620,222,212,222
-22.39190292,9.07412434,1.99134302,0.345098,224,213,224
-22.81055069,7.97090483,2.05320215,0.379522,209,195,205
-22.81408691,7.96153307,2.05604005,0.389044,208,193,199
-22.93852234,7.63347244,1.97760999,0.364630,123,120,127
-22.84399414,7.88262415,2.08246803,0.394659,152,139,145
-22.80145264,7.99493551,2.27073121,0.421027,72,57,58
-22.80278587,7.99141169,2.27515602,0.473030,148,139,148
-22.77228165,8.07204723,2.55454516,0.359991,43,36,32
-22.77260399,8.07126236,2.56546998,0.345342,34,27,24
-22.84409332,7.88285494,2.55198121,0.355108,31,25,23
-22.84852600,7.87114000,2.55347705,0.453986,33,27,25
-23.07363892,7.27828169,2.95121217,0.423468,45,40,36
-23.07509613,7.27446795,2.95487404,0.438117,54,41,45
-23.07615852,7.27169085,2.95899415,0.446418,46,44,52
-23.07665634,7.27038527,2.96375513,0.375372,50,50,63
-23.07623291,7.27144003,2.96949220,0.334356,28,29,37
-23.07642365,7.27098560,2.97465014,0.442512,75,75,86
-23.07519722,7.27419901,3.01862621,0.353155,65,54,53
-23.07519913,7.27435160,3.02408814,0.413214,58,48,51
-22.52143288,8.73461151,3.94059205,0.336797,53,46,46
-22.67096138,8.34076595,4.15986109,0.329229,74,74,68
-22.66143799,8.36589336,4.22574806,0.323125,73,73,79
-22.51911163,8.74201202,5.08854103,0.346807,67,59,44
-22.53321648,8.70520973,5.57715797,0.329229,76,69,43
-22.74656487,8.12419128,0.86747199,0.335332,40,30,29
-22.77498055,8.04950619,1.06571400,0.398077,121,92,88
-22.77433777,8.05142307,1.07114601,0.518685,112,83,76
-22.77148056,8.05892754,1.07737195,0.482795,91,65,59
-22.76576614,8.07393456,1.08463502,0.362432,94,70,64
-22.73115158,8.16499996,1.14472401,0.334844,95,70,68
-22.68026924,8.29922104,1.57435095,0.341192,220,204,209
-22.86560440,7.81170130,1.49338794,0.349248,159,137,140
-22.31107712,9.27097034,2.06132007,0.337774,225,214,225
-22.31825829,9.25191212,2.06312013,0.351934,224,213,224
-22.80609322,7.96871042,2.05308008,0.371710,212,199,211
-22.81177139,7.95380640,2.05439210,0.336309,214,201,204
-22.92797470,7.64799690,1.97684693,0.324590,127,115,116
-22.93486786,7.62981462,1.97709095,0.502571,69,60,62
-22.93476677,7.63008451,1.99763000,0.365606,117,102,112
-22.79599380,7.99539328,2.27134204,0.470100,110,91,95
-22.79725647,7.99207830,2.27582812,0.410040,53,39,45
-22.62088203,8.45643997,2.57126808,0.326299,39,30,22
-22.62353897,8.44947720,2.57493114,0.352178,61,56,54
-22.76704788,8.07179642,2.55500317,0.363165,42,35,32
-22.76735115,8.07098579,2.56034303,0.325567,32,26,23
-22.84109688,7.87699842,2.55054712,0.429816,29,22,22
-22.84002495,7.87986135,2.55698609,0.396857,37,29,29
-22.77072525,8.06235409,2.63038111,0.332647,40,29,31
-23.06664276,7.28415298,2.94901514,0.361212,46,43,34
-23.06850433,7.27926111,2.95225000,0.428351,62,56,50
-23.06963539,7.27627516,2.95630908,0.483528,66,60,58
-23.07046127,7.27414179,2.96070313,0.345586,53,47,46
-23.07060623,7.27368259,2.96583009,0.331182,67,68,76
-23.07023430,7.27470016,2.97159815,0.325322,54,55,66
-22.75729179,8.09902573,4.12360620,0.341192,43,43,45
-22.50065613,8.77515125,5.08771706,0.378302,92,76,76
-22.51322937,8.74206543,5.08231592,0.333135,60,57,47
-22.43500137,8.94795704,5.24552393,0.353399,53,50,48
-22.48493385,8.81665802,5.23975611,0.379522,75,70,56
-22.74274635,8.11962032,0.86713600,0.371954,41,31,30
-22.77068520,8.04641724,1.05521595,0.424445,140,112,110
-22.93139839,7.62474489,1.24338794,0.341436,119,89,91
-22.93252945,7.62175894,1.24781299,0.366827,120,90,87
-22.80064201,7.96877813,2.04822803,0.347051,213,206,217
-22.80127144,7.96714067,2.05314112,0.411505,215,202,211
-22.92620087,7.63897133,1.97483301,0.336309,102,93,90
-22.93088913,7.62663698,1.99204493,0.424689,41,29,31
-22.83339882,7.88275671,2.07816505,0.376837,140,124,140
-22.83360100,7.88221598,2.08332300,0.322637,163,130,133
-22.79022980,7.99620485,2.27219605,0.370245,160,140,146
-22.79123116,7.99354982,2.27683520,0.327520,62,46,39
-22.76428604,8.06448936,2.37525415,0.324102,157,132,116
-22.76188660,8.07083511,2.55530810,0.323125,41,33,31
-22.76211739,8.07023430,2.56070900,0.344366,33,28,25
-22.76134109,8.07233047,2.57816505,0.326055,40,32,29
-22.76183891,8.07102394,2.58341408,0.354131,39,31,28
-22.82947922,7.89338493,2.54569507,0.413947,33,26,24
-22.83399200,7.88172483,2.54722118,0.438849,32,27,25
-22.83514786,7.87871981,2.55173707,0.421271,27,21,20
-22.75987244,8.07638168,2.63581300,0.335332,53,38,40
-22.75945091,8.07743549,2.64182520,0.449104,55,38,40
-23.59607124,5.88044024,2.20716310,0.369268,32,37,39
-23.06257439,7.28181314,3.03406811,0.365850,67,58,79
-22.49237823,8.78085423,5.01883888,0.352178,54,50,39
-22.41059494,8.99574757,5.22297096,0.337530,70,57,62
-22.51235008,8.72854328,5.07532692,0.349737,59,54,44
-23.30150223,6.65583611,4.23743725,0.346319,102,72,72
-22.74087334,8.11001587,0.87149996,0.322393,44,34,32
-22.76601791,8.04434586,1.03965199,0.411261,94,72,76
-22.76538277,8.04602528,1.04505396,0.461067,125,104,109
-22.72296524,8.15739536,1.12833595,0.342901,85,64,61
-22.37173080,9.07857132,1.98154700,0.337285,224,213,223
-22.79650307,7.96533918,2.05311108,0.422004,207,192,198
-22.90437889,7.68265963,2.00272608,0.390021,25,20,20
-22.82841873,7.88173246,2.07303810,0.452766,141,141,150
-22.82854843,7.88140154,2.07828808,0.378302,193,191,193
-22.78576279,7.99374533,2.27744508,0.322881,115,93,78
-22.75694466,8.06951141,2.56107616,0.359991,30,23,22
-22.75684357,8.06978130,2.56675220,0.338018,28,21,20
-22.75773430,8.06748199,2.58283520,0.419074,39,30,25
-22.82583237,7.88898897,2.54487109,0.415900,32,26,22
-22.82872009,7.88142443,2.54780006,0.424201,33,27,24
-22.82812119,7.88299894,2.55381203,0.371710,34,26,25
-22.76542282,8.04738045,2.62086010,0.326299,42,32,32
-22.75355339,8.07842541,2.63715601,0.338018,50,36,37
-23.05705833,7.28354788,3.03562403,0.454963,84,81,108
-22.73358727,8.13269520,4.56449413,0.359747,59,51,46
-22.47742081,8.80442047,5.01945019,0.328008,56,46,34
-22.48249435,8.79113483,5.01883888,0.333623,63,54,43
-23.01981926,7.36558485,0.17875101,0.333379,45,16,13
-23.01982117,7.36573744,0.18336001,0.323613,58,42,44
-22.73643303,8.10754013,0.87143898,0.364141,44,34,33
