36191.8390088 42779.7548792 13.5 -0.833060435995 0.553181986311 -7.45255238608e-19
36191.8390088 42779.7548792 22.5 -0.833060435995 0.553181986311 -7.45255238608e-19
36191.8390088 42779.7548792 31.5 -0.833060435995 0.553181986311 -7.45255238608e-19
36191.8390088 42779.7548792 40.5 -0.833060435995 0.553181986311 -7.45255238608e-19
36191.8390088 42779.7548792 46.5 -0.833060435995 0.553181986311 -7.45255238608e-19
36206.4974683 42774.0223075 43.5 0.548597148355 0.836086818947 -0.0
36206.4974683 42774.0223075 34.5 0.548597148355 0.836086818947 -0.0
36206.4974683 42774.0223075 25.5 0.548597148355 0.836086818947 -0.0
36206.4974683 42774.0223075 16.5 0.548597148355 0.836086818947 -0.0
36206.4974683 42774.0223075 7.5 0.548597148355 0.836086818947 -0.0
36206.4974683 42774.0223075 1.5 0.548597148355 0.836086818947 -0.0
36198.9726869 42778.9596819 43.5 0.548597148355 0.836086818947 -0.0
36198.9726869 42778.9596819 34.5 0.548597148355 0.836086818947 -0.0
36198.9726869 42778.9596819 25.5 0.548597148355 0.836086818947 -0.0
36198.9726869 42778.9596819 16.5 0.548597148355 0.836086818947 -0.0
36198.9726869 42778.9596819 7.5 0.548597148355 0.836086818947 -0.0
36198.9726869 42778.9596819 1.5 0.548597148355 0.836086818947 -0.0
36194.4273741 42781.9420823 43.5 0.548597148355 0.836086818947 -0.0
36194.4273741 42781.9420823 34.5 0.548597148355 0.836086818947 -0.0
36194.4273741 42781.9420823 25.5 0.548597148355 0.836086818947 -0.0
36194.4273741 42781.9420823 16.5 0.548597148355 0.836086818947 -0.0
36194.4273741 42781.9420823 7.5 0.548597148355 0.836086818947 -0.0
36194.4273741 42781.9420823 1.5 0.548597148355 0.836086818947 -0.0
36220.6498168 42762.8785044 43.5 0.658179039207 0.752861442995 2.02115120374e-18
36220.6498168 42762.8785044 34.5 0.658179039207 0.752861442995 2.02115120374e-18
36220.6498168 42762.8785044 25.5 0.658179039207 0.752861442995 2.02115120374e-18
36220.6498168 42762.8785044 16.5 0.658179039207 0.752861442995 2.02115120374e-18
36220.6498168 42762.8785044 7.5 0.658179039207 0.752861442995 2.02115120374e-18
36220.6498168 42762.8785044 1.5 0.658179039207 0.752861442995 2.02115120374e-18
36222.2533499 42759.2928129 4.5 0.747749199879 -0.663981275398 -1.03743730794e-22
36222.2533499 42759.2928129 13.5 0.747749199879 -0.663981275398 -1.03743730794e-22
36222.2533499 42759.2928129 22.5 0.747749199879 -0.663981275398 -1.03743730794e-22
36222.2533499 42759.2928129 31.5 0.747749199879 -0.663981275398 -1.03743730794e-22
36222.2533499 42759.2928129 40.5 0.747749199879 -0.663981275398 -1.03743730794e-22
36222.2533499 42759.2928129 46.5 0.747749199879 -0.663981275398 -1.03743730794e-22
36223.0204202 42756.4652274 43.5 0.658163210402 0.752875280822 -2.71879848694e-22
36223.0204202 42756.4652274 34.5 0.658163210402 0.752875280822 -2.71879848694e-22
36223.0204202 42756.4652274 25.5 0.658163210402 0.752875280822 -2.71879848694e-22
36223.0204202 42756.4652274 16.5 0.658163210402 0.752875280822 -2.71879848694e-22
36223.0204202 42756.4652274 7.5 0.658163210402 0.752875280822 -2.71879848694e-22
36223.0204202 42756.4652274 1.5 0.658163210402 0.752875280822 -2.71879848694e-22
36225.6939305 42755.7898938 4.5 -0.749678876382 0.661801769646 1.91849394779e-21
36225.6939305 42755.7898938 13.5 -0.749678876382 0.661801769646 1.91849394779e-21
36225.6939305 42755.7898938 22.5 -0.749678876382 0.661801769646 1.91849394779e-21
36225.6939305 42755.7898938 31.5 -0.749678876382 0.661801769646 1.91849394779e-21
36225.6939305 42755.7898938 40.5 -0.749678876382 0.661801769646 1.91849394779e-21
36225.6939305 42755.7898938 46.5 -0.749678876382 0.661801769646 1.91849394779e-21
36228.078425 42755.3928072 43.5 0.658398364841 0.752669644117 -4.67758632285e-22
36228.078425 42755.3928072 34.5 0.658398364841 0.752669644117 -4.67758632285e-22
36228.078425 42755.3928072 25.5 0.658398364841 0.752669644117 -4.67758632285e-22
36228.078425 42755.3928072 16.5 0.658398364841 0.752669644117 -4.67758632285e-22
36228.078425 42755.3928072 7.5 0.658398364841 0.752669644117 -4.67758632285e-22
36228.078425 42755.3928072 1.5 0.658398364841 0.752669644117 -4.67758632285e-22
36226.6290909 42750.6686588 4.5 0.74812176454 -0.663561470718 -0.0
36226.6290909 42750.6686588 13.5 0.74812176454 -0.663561470718 -0.0
36226.6290909 42750.6686588 22.5 0.74812176454 -0.663561470718 -0.0
36226.6290909 42750.6686588 31.5 0.74812176454 -0.663561470718 -0.0
36226.6290909 42750.6686588 40.5 0.74812176454 -0.663561470718 -0.0
36226.6290909 42750.6686588 46.5 0.74812176454 -0.663561470718 -0.0
36223.1570776 42746.754193 4.5 0.74812176454 -0.663561470718 -0.0
36223.1570776 42746.754193 13.5 0.74812176454 -0.663561470718 -0.0
36223.1570776 42746.754193 22.5 0.74812176454 -0.663561470718 -0.0
36223.1570776 42746.754193 31.5 0.74812176454 -0.663561470718 -0.0
36223.1570776 42746.754193 40.5 0.74812176454 -0.663561470718 -0.0
36223.1570776 42746.754193 46.5 0.74812176454 -0.663561470718 -0.0
36223.2747807 42741.754596 4.5 0.991033518692 0.133613490443 -0.0
36223.2747807 42741.754596 13.5 0.991033518692 0.133613490443 -0.0
36223.2747807 42741.754596 22.5 0.991033518692 0.133613490443 -0.0
36223.2747807 42741.754596 31.5 0.991033518692 0.133613490443 -0.0
36223.2747807 42741.754596 40.5 0.991033518692 0.133613490443 -0.0
36223.2747807 42741.754596 46.5 0.991033518692 0.133613490443 -0.0
36224.1096245 42735.5624205 4.5 0.991033518692 0.133613490443 -0.0
36224.1096245 42735.5624205 13.5 0.991033518692 0.133613490443 -0.0
36224.1096245 42735.5624205 22.5 0.991033518692 0.133613490443 -0.0
36224.1096245 42735.5624205 31.5 0.991033518692 0.133613490443 -0.0
36224.1096245 42735.5624205 40.5 0.991033518692 0.133613490443 -0.0
36224.1096245 42735.5624205 46.5 0.991033518692 0.133613490443 -0.0
36227.3526004 42737.2549781 4.5 -0.748823567667 0.66276939014 -8.82593219802e-22
36227.3526004 42737.2549781 13.5 -0.748823567667 0.66276939014 -8.82593219802e-22
36227.3526004 42737.2549781 22.5 -0.748823567667 0.66276939014 -8.82593219802e-22
36227.3526004 42737.2549781 31.5 -0.748823567667 0.66276939014 -8.82593219802e-22
36227.3526004 42737.2549781 40.5 -0.748823567667 0.66276939014 -8.82593219802e-22
36227.3526004 42737.2549781 46.5 -0.748823567667 0.66276939014 -8.82593219802e-22
36224.3479736 42733.8602297 4.5 -0.748823567667 0.66276939014 -8.82593219802e-22
36224.3479736 42733.8602297 13.5 -0.748823567667 0.66276939014 -8.82593219802e-22
36224.3479736 42733.8602297 22.5 -0.748823567667 0.66276939014 -8.82593219802e-22
36224.3479736 42733.8602297 31.5 -0.748823567667 0.66276939014 -8.82593219802e-22
36224.3479736 42733.8602297 40.5 -0.748823567667 0.66276939014 -8.82593219802e-22
36224.3479736 42733.8602297 46.5 -0.748823567667 0.66276939014 -8.82593219802e-22
36233.2537866 42738.0879821 43.5 0.657921571636 0.753086452923 9.81261794262e-22
36233.2537866 42738.0879821 34.5 0.657921571636 0.753086452923 9.81261794262e-22
36233.2537866 42738.0879821 25.5 0.657921571636 0.753086452923 9.81261794262e-22
36233.2537866 42738.0879821 16.5 0.657921571636 0.753086452923 9.81261794262e-22
36233.2537866 42738.0879821 7.5 0.657921571636 0.753086452923 9.81261794262e-22
36233.2537866 42738.0879821 1.5 0.657921571636 0.753086452923 9.81261794262e-22
36222.2190638 42719.817188 4.5 0.748169446682 -0.663507708359 9.03151224299e-22
36222.2190638 42719.817188 13.5 0.748169446682 -0.663507708359 9.03151224299e-22
36222.2190638 42719.817188 22.5 0.748169446682 -0.663507708359 9.03151224299e-22
36222.2190638 42719.817188 31.5 0.748169446682 -0.663507708359 9.03151224299e-22
36222.2190638 42719.817188 40.5 0.748169446682 -0.663507708359 9.03151224299e-22
36222.2190638 42719.817188 46.5 0.748169446682 -0.663507708359 9.03151224299e-22
36228.1906332 42726.5507131 4.5 0.748169446682 -0.663507708359 9.03151224299e-22
36228.1906332 42726.5507131 13.5 0.748169446682 -0.663507708359 9.03151224299e-22
36228.1906332 42726.5507131 22.5 0.748169446682 -0.663507708359 9.03151224299e-22
36228.1906332 42726.5507131 31.5 0.748169446682 -0.663507708359 9.03151224299e-22
36228.1906332 42726.5507131 40.5 0.748169446682 -0.663507708359 9.03151224299e-22
36228.1906332 42726.5507131 46.5 0.748169446682 -0.663507708359 9.03151224299e-22
36233.6678817 42732.7268432 4.5 0.748169446682 -0.663507708359 9.03151224299e-22
36233.6678817 42732.7268432 13.5 0.748169446682 -0.663507708359 9.03151224299e-22
36233.6678817 42732.7268432 22.5 0.748169446682 -0.663507708359 9.03151224299e-22
36233.6678817 42732.7268432 31.5 0.748169446682 -0.663507708359 9.03151224299e-22
36233.6678817 42732.7268432 40.5 0.748169446682 -0.663507708359 9.03151224299e-22
36233.6678817 42732.7268432 46.5 0.748169446682 -0.663507708359 9.03151224299e-22
36216.6317357 42718.7107085 43.5 -0.658031715526 -0.752990213324 -0.0
36216.6317357 42718.7107085 34.5 -0.658031715526 -0.752990213324 -0.0
36216.6317357 42718.7107085 25.5 -0.658031715526 -0.752990213324 -0.0
36216.6317357 42718.7107085 16.5 -0.658031715526 -0.752990213324 -0.0
36216.6317357 42718.7107085 7.5 -0.658031715526 -0.752990213324 -0.0
36216.6317357 42718.7107085 1.5 -0.658031715526 -0.752990213324 -0.0
36215.4232491 42722.5451953 4.5 -0.74884079285 0.662749927925 -3.35375167956e-22
36215.4232491 42722.5451953 13.5 -0.74884079285 0.662749927925 -3.35375167956e-22
36215.4232491 42722.5451953 22.5 -0.74884079285 0.662749927925 -3.35375167956e-22
36215.4232491 42722.5451953 31.5 -0.74884079285 0.662749927925 -3.35375167956e-22
36215.4232491 42722.5451953 40.5 -0.74884079285 0.662749927925 -3.35375167956e-22
36215.4232491 42722.5451953 46.5 -0.74884079285 0.662749927925 -3.35375167956e-22
36213.9717479 42726.561447 43.5 -0.657446878612 -0.753500897015 6.73982897832e-22
36213.9717479 42726.561447 34.5 -0.657446878612 -0.753500897015 6.73982897832e-22
36213.9717479 42726.561447 25.5 -0.657446878612 -0.753500897015 6.73982897832e-22
36213.9717479 42726.561447 16.5 -0.657446878612 -0.753500897015 6.73982897832e-22
36213.9717479 42726.561447 7.5 -0.657446878612 -0.753500897015 6.73982897832e-22
36213.9717479 42726.561447 1.5 -0.657446878612 -0.753500897015 6.73982897832e-22
36209.573282 42727.2477813 4.5 0.748906480095 -0.662675700529 -0.0
36209.573282 42727.2477813 13.5 0.748906480095 -0.662675700529 -0.0
36209.573282 42727.2477813 22.5 0.748906480095 -0.662675700529 -0.0
36209.573282 42727.2477813 31.5 0.748906480095 -0.662675700529 -0.0
36209.573282 42727.2477813 40.5 0.748906480095 -0.662675700529 -0.0
36209.573282 42727.2477813 46.5 0.748906480095 -0.662675700529 -0.0
36205.9368247 42727.2523049 43.5 -0.659412939171 -0.751780935948 0.0
36205.9368247 42727.2523049 34.5 -0.659412939171 -0.751780935948 0.0
36205.9368247 42727.2523049 25.5 -0.659412939171 -0.751780935948 0.0
36205.9368247 42727.2523049 16.5 -0.659412939171 -0.751780935948 0.0
36205.9368247 42727.2523049 7.5 -0.659412939171 -0.751780935948 0.0
36205.9368247 42727.2523049 1.5 -0.659412939171 -0.751780935948 0.0
36206.8799399 42732.4241354 4.5 -0.748094540916 0.66359216229 1.59321275355e-20
36206.8799399 42732.4241354 13.5 -0.748094540916 0.66359216229 1.59321275355e-20
36206.8799399 42732.4241354 22.5 -0.748094540916 0.66359216229 1.59321275355e-20
36206.8799399 42732.4241354 31.5 -0.748094540916 0.66359216229 1.59321275355e-20
36206.8799399 42732.4241354 40.5 -0.748094540916 0.66359216229 1.59321275355e-20
36206.8799399 42732.4241354 46.5 -0.748094540916 0.66359216229 1.59321275355e-20
36210.3130048 42736.2943697 4.5 -0.748094540916 0.66359216229 1.59321275355e-20
36210.3130048 42736.2943697 13.5 -0.748094540916 0.66359216229 1.59321275355e-20
36210.3130048 42736.2943697 22.5 -0.748094540916 0.66359216229 1.59321275355e-20
36210.3130048 42736.2943697 31.5 -0.748094540916 0.66359216229 1.59321275355e-20
36210.3130048 42736.2943697 40.5 -0.748094540916 0.66359216229 1.59321275355e-20
36210.3130048 42736.2943697 46.5 -0.748094540916 0.66359216229 1.59321275355e-20
36212.2263015 42735.5274993 43.5 0.658733413655 0.752376428215 -1.02140258791e-22
36212.2263015 42735.5274993 34.5 0.658733413655 0.752376428215 -1.02140258791e-22
36212.2263015 42735.5274993 25.5 0.658733413655 0.752376428215 -1.02140258791e-22
36212.2263015 42735.5274993 16.5 0.658733413655 0.752376428215 -1.02140258791e-22
36212.2263015 42735.5274993 7.5 0.658733413655 0.752376428215 -1.02140258791e-22
36212.2263015 42735.5274993 1.5 0.658733413655 0.752376428215 -1.02140258791e-22
36214.4268557 42735.1120351 4.5 -0.747182132249 0.664619335596 -4.38476031828e-23
36214.4268557 42735.1120351 13.5 -0.747182132249 0.664619335596 -4.38476031828e-23
36214.4268557 42735.1120351 22.5 -0.747182132249 0.664619335596 -4.38476031828e-23
36214.4268557 42735.1120351 31.5 -0.747182132249 0.664619335596 -4.38476031828e-23
36214.4268557 42735.1120351 40.5 -0.747182132249 0.664619335596 -4.38476031828e-23
36214.4268557 42735.1120351 46.5 -0.747182132249 0.664619335596 -4.38476031828e-23
36214.6526779 42740.4293858 4.5 -0.992934003703 -0.118667873879 -6.02668140847e-19
36214.6526779 42740.4293858 13.5 -0.992934003703 -0.118667873879 -6.02668140847e-19
36214.6526779 42740.4293858 22.5 -0.992934003703 -0.118667873879 -6.02668140847e-19
36214.6526779 42740.4293858 31.5 -0.992934003703 -0.118667873879 -6.02668140847e-19
36214.6526779 42740.4293858 40.5 -0.992934003703 -0.118667873879 -6.02668140847e-19
36214.6526779 42740.4293858 46.5 -0.992934003703 -0.118667873879 -6.02668140847e-19
36214.0348752 42745.5987492 4.5 -0.992934003703 -0.118667873879 -6.02668140847e-19
36214.0348752 42745.5987492 13.5 -0.992934003703 -0.118667873879 -6.02668140847e-19
36214.0348752 42745.5987492 22.5 -0.992934003703 -0.118667873879 -6.02668140847e-19
36214.0348752 42745.5987492 31.5 -0.992934003703 -0.118667873879 -6.02668140847e-19
36214.0348752 42745.5987492 40.5 -0.992934003703 -0.118667873879 -6.02668140847e-19
36214.0348752 42745.5987492 46.5 -0.992934003703 -0.118667873879 -6.02668140847e-19
36212.797015 42747.3052922 43.5 -0.658132604161 -0.752902035686 2.18821971504e-22
36212.797015 42747.3052922 34.5 -0.658132604161 -0.752902035686 2.18821971504e-22
36212.797015 42747.3052922 25.5 -0.658132604161 -0.752902035686 2.18821971504e-22
36212.797015 42747.3052922 16.5 -0.658132604161 -0.752902035686 2.18821971504e-22
36212.797015 42747.3052922 7.5 -0.658132604161 -0.752902035686 2.18821971504e-22
36212.797015 42747.3052922 1.5 -0.658132604161 -0.752902035686 2.18821971504e-22
36210.6744024 42747.206625 4.5 0.750267065616 -0.661134880529 6.0801230499e-23
36210.6744024 42747.206625 13.5 0.750267065616 -0.661134880529 6.0801230499e-23
36210.6744024 42747.206625 22.5 0.750267065616 -0.661134880529 6.0801230499e-23
36210.6744024 42747.206625 31.5 0.750267065616 -0.661134880529 6.0801230499e-23
36210.6744024 42747.206625 40.5 0.750267065616 -0.661134880529 6.0801230499e-23
36210.6744024 42747.206625 46.5 0.750267065616 -0.661134880529 6.0801230499e-23
36207.2382206 42748.2339538 43.5 -0.658870063889 -0.752256763952 1.25433907472e-21
36207.2382206 42748.2339538 34.5 -0.658870063889 -0.752256763952 1.25433907472e-21
36207.2382206 42748.2339538 25.5 -0.658870063889 -0.752256763952 1.25433907472e-21
36207.2382206 42748.2339538 16.5 -0.658870063889 -0.752256763952 1.25433907472e-21
36207.2382206 42748.2339538 7.5 -0.658870063889 -0.752256763952 1.25433907472e-21
36207.2382206 42748.2339538 1.5 -0.658870063889 -0.752256763952 1.25433907472e-21
36207.7794458 42753.7551845 4.5 -0.74833889954 0.663316584622 5.81334190255e-18
36207.7794458 42753.7551845 13.5 -0.74833889954 0.663316584622 5.81334190255e-18
36207.7794458 42753.7551845 22.5 -0.74833889954 0.663316584622 5.81334190255e-18
36207.7794458 42753.7551845 31.5 -0.74833889954 0.663316584622 5.81334190255e-18
36207.7794458 42753.7551845 40.5 -0.74833889954 0.663316584622 5.81334190255e-18
36207.7794458 42753.7551845 46.5 -0.74833889954 0.663316584622 5.81334190255e-18
36213.7492951 42760.4902346 4.5 -0.74833889954 0.663316584622 5.81334190255e-18
36213.7492951 42760.4902346 13.5 -0.74833889954 0.663316584622 5.81334190255e-18
36213.7492951 42760.4902346 22.5 -0.74833889954 0.663316584622 5.81334190255e-18
36213.7492951 42760.4902346 31.5 -0.74833889954 0.663316584622 5.81334190255e-18
36213.7492951 42760.4902346 40.5 -0.74833889954 0.663316584622 5.81334190255e-18
36213.7492951 42760.4902346 46.5 -0.74833889954 0.663316584622 5.81334190255e-18
36217.3411649 42764.5425016 4.5 -0.74833889954 0.663316584622 5.81334190255e-18
36217.3411649 42764.5425016 13.5 -0.74833889954 0.663316584622 5.81334190255e-18
36217.3411649 42764.5425016 22.5 -0.74833889954 0.663316584622 5.81334190255e-18
36217.3411649 42764.5425016 31.5 -0.74833889954 0.663316584622 5.81334190255e-18
36217.3411649 42764.5425016 40.5 -0.74833889954 0.663316584622 5.81334190255e-18
36217.3411649 42764.5425016 46.5 -0.74833889954 0.663316584622 5.81334190255e-18
36353.5539999 42815.9568217 4.5 -0.83177715103 0.555109692785 0.0
36353.5539999 42815.9568217 13.5 -0.83177715103 0.555109692785 0.0
36353.5539999 42815.9568217 22.5 -0.83177715103 0.555109692785 0.0
36353.5539999 42815.9568217 31.5 -0.83177715103 0.555109692785 0.0
36353.5539999 42815.9568217 40.5 -0.83177715103 0.555109692785 0.0
36353.5539999 42815.9568217 46.5 -0.83177715103 0.555109692785 0.0
36350.7497171 42811.7548803 4.5 -0.83177715103 0.555109692785 0.0
36350.7497171 42811.7548803 13.5 -0.83177715103 0.555109692785 0.0
36350.7497171 42811.7548803 22.5 -0.83177715103 0.555109692785 0.0
36350.7497171 42811.7548803 31.5 -0.83177715103 0.555109692785 0.0
36350.7497171 42811.7548803 40.5 -0.83177715103 0.555109692785 0.0
36350.7497171 42811.7548803 46.5 -0.83177715103 0.555109692785 0.0
36352.2974045 42822.1621885 43.5 -0.550282333961 -0.834978654177 -7.00905622023e-22
36352.2974045 42822.1621885 34.5 -0.550282333961 -0.834978654177 -7.00905622023e-22
36352.2974045 42822.1621885 25.5 -0.550282333961 -0.834978654177 -7.00905622023e-22
36352.2974045 42822.1621885 16.5 -0.550282333961 -0.834978654177 -7.00905622023e-22
36352.2974045 42822.1621885 7.5 -0.550282333961 -0.834978654177 -7.00905622023e-22
36352.2974045 42822.1621885 1.5 -0.550282333961 -0.834978654177 -7.00905622023e-22
36348.4134266 42824.721876 43.5 -0.550282333961 -0.834978654177 -7.00905622023e-22
36348.4134266 42824.721876 34.5 -0.550282333961 -0.834978654177 -7.00905622023e-22
36348.4134266 42824.721876 25.5 -0.550282333961 -0.834978654177 -7.00905622023e-22
36348.4134266 42824.721876 16.5 -0.550282333961 -0.834978654177 -7.00905622023e-22
36348.4134266 42824.721876 7.5 -0.550282333961 -0.834978654177 -7.00905622023e-22
36348.4134266 42824.721876 1.5 -0.550282333961 -0.834978654177 -7.00905622023e-22
36350.7817326 42828.5623895 4.5 -0.831821386879 0.555043404007 -0.0
36350.7817326 42828.5623895 13.5 -0.831821386879 0.555043404007 -0.0
36350.7817326 42828.5623895 22.5 -0.831821386879 0.555043404007 -0.0
36350.7817326 42828.5623895 31.5 -0.831821386879 0.555043404007 -0.0
36350.7817326 42828.5623895 40.5 -0.831821386879 0.555043404007 -0.0
36350.7817326 42828.5623895 46.5 -0.831821386879 0.555043404007 -0.0
36354.5152121 42834.1576061 4.5 -0.831821386879 0.555043404007 -0.0
36354.5152121 42834.1576061 13.5 -0.831821386879 0.555043404007 -0.0
36354.5152121 42834.1576061 22.5 -0.831821386879 0.555043404007 -0.0
36354.5152121 42834.1576061 31.5 -0.831821386879 0.555043404007 -0.0
36354.5152121 42834.1576061 40.5 -0.831821386879 0.555043404007 -0.0
36354.5152121 42834.1576061 46.5 -0.831821386879 0.555043404007 -0.0
36354.0344187 42837.1235246 43.5 -0.54846834353 -0.836171319854 -0.0
36354.0344187 42837.1235246 34.5 -0.54846834353 -0.836171319854 -0.0
36354.0344187 42837.1235246 25.5 -0.54846834353 -0.836171319854 -0.0
36354.0344187 42837.1235246 16.5 -0.54846834353 -0.836171319854 -0.0
36354.0344187 42837.1235246 7.5 -0.54846834353 -0.836171319854 -0.0
36354.0344187 42837.1235246 1.5 -0.54846834353 -0.836171319854 -0.0
36354.9314898 42842.1863516 4.5 -0.83153646616 0.555470166117 8.83029271678e-21
36354.9314898 42842.1863516 13.5 -0.83153646616 0.555470166117 8.83029271678e-21
36354.9314898 42842.1863516 22.5 -0.83153646616 0.555470166117 8.83029271678e-21
36354.9314898 42842.1863516 31.5 -0.83153646616 0.555470166117 8.83029271678e-21
36354.9314898 42842.1863516 40.5 -0.83153646616 0.555470166117 8.83029271678e-21
36354.9314898 42842.1863516 46.5 -0.83153646616 0.555470166117 8.83029271678e-21
36352.3720254 42838.3548444 4.5 -0.83153646616 0.555470166117 8.83029271678e-21
36352.3720254 42838.3548444 13.5 -0.83153646616 0.555470166117 8.83029271678e-21
36352.3720254 42838.3548444 22.5 -0.83153646616 0.555470166117 8.83029271678e-21
36352.3720254 42838.3548444 31.5 -0.83153646616 0.555470166117 8.83029271678e-21
36352.3720254 42838.3548444 40.5 -0.83153646616 0.555470166117 8.83029271678e-21
36352.3720254 42838.3548444 46.5 -0.83153646616 0.555470166117 8.83029271678e-21
36372.0162621 42836.332346 43.5 0.550108703565 0.835093057247 4.65375694087e-18
36372.0162621 42836.332346 34.5 0.550108703565 0.835093057247 4.65375694087e-18
36372.0162621 42836.332346 25.5 0.550108703565 0.835093057247 4.65375694087e-18
36372.0162621 42836.332346 16.5 0.550108703565 0.835093057247 4.65375694087e-18
36372.0162621 42836.332346 7.5 0.550108703565 0.835093057247 4.65375694087e-18
36372.0162621 42836.332346 1.5 0.550108703565 0.835093057247 4.65375694087e-18
36364.5004246 42841.2833243 43.5 0.550108703565 0.835093057247 4.65375694087e-18
36364.5004246 42841.2833243 34.5 0.550108703565 0.835093057247 4.65375694087e-18
36364.5004246 42841.2833243 25.5 0.550108703565 0.835093057247 4.65375694087e-18
36364.5004246 42841.2833243 16.5 0.550108703565 0.835093057247 4.65375694087e-18
36364.5004246 42841.2833243 7.5 0.550108703565 0.835093057247 4.65375694087e-18
36364.5004246 42841.2833243 1.5 0.550108703565 0.835093057247 4.65375694087e-18
36359.0937139 42844.8449377 43.5 0.550108703565 0.835093057247 4.65375694087e-18
36359.0937139 42844.8449377 34.5 0.550108703565 0.835093057247 4.65375694087e-18
36359.0937139 42844.8449377 25.5 0.550108703565 0.835093057247 4.65375694087e-18
36359.0937139 42844.8449377 16.5 0.550108703565 0.835093057247 4.65375694087e-18
36359.0937139 42844.8449377 7.5 0.550108703565 0.835093057247 4.65375694087e-18
36359.0937139 42844.8449377 1.5 0.550108703565 0.835093057247 4.65375694087e-18
36373.2781225 42830.1005432 4.5 0.83164658617 -0.555305281545 1.83650438996e-21
36373.2781225 42830.1005432 13.5 0.83164658617 -0.555305281545 1.83650438996e-21
36373.2781225 42830.1005432 22.5 0.83164658617 -0.555305281545 1.83650438996e-21
36373.2781225 42830.1005432 31.5 0.83164658617 -0.555305281545 1.83650438996e-21
36373.2781225 42830.1005432 40.5 0.83164658617 -0.555305281545 1.83650438996e-21
36373.2781225 42830.1005432 46.5 0.83164658617 -0.555305281545 1.83650438996e-21
36370.1733812 42825.450763 4.5 0.83164658617 -0.555305281545 1.83650438996e-21
36370.1733812 42825.450763 13.5 0.83164658617 -0.555305281545 1.83650438996e-21
36370.1733812 42825.450763 22.5 0.83164658617 -0.555305281545 1.83650438996e-21
36370.1733812 42825.450763 31.5 0.83164658617 -0.555305281545 1.83650438996e-21
36370.1733812 42825.450763 40.5 0.83164658617 -0.555305281545 1.83650438996e-21
36370.1733812 42825.450763 46.5 0.83164658617 -0.555305281545 1.83650438996e-21
36366.6824473 42826.4313345 43.5 -0.549973847309 -0.835181876765 -0.0
36366.6824473 42826.4313345 34.5 -0.549973847309 -0.835181876765 -0.0
36366.6824473 42826.4313345 25.5 -0.549973847309 -0.835181876765 -0.0
36366.6824473 42826.4313345 16.5 -0.549973847309 -0.835181876765 -0.0
36366.6824473 42826.4313345 7.5 -0.549973847309 -0.835181876765 -0.0
36366.6824473 42826.4313345 1.5 -0.549973847309 -0.835181876765 -0.0
36364.8557039 42819.4552809 4.5 0.99334653509 0.115163628047 0.0
36364.8557039 42819.4552809 13.5 0.99334653509 0.115163628047 0.0
36364.8557039 42819.4552809 22.5 0.99334653509 0.115163628047 0.0
36364.8557039 42819.4552809 31.5 0.99334653509 0.115163628047 0.0
36364.8557039 42819.4552809 40.5 0.99334653509 0.115163628047 0.0
36364.8557039 42819.4552809 46.5 0.99334653509 0.115163628047 0.0
36364.082049 42826.1284596 4.5 0.99334653509 0.115163628047 0.0
36364.082049 42826.1284596 13.5 0.99334653509 0.115163628047 0.0
36364.082049 42826.1284596 22.5 0.99334653509 0.115163628047 0.0
36364.082049 42826.1284596 31.5 0.99334653509 0.115163628047 0.0
36364.082049 42826.1284596 40.5 0.99334653509 0.115163628047 0.0
36364.082049 42826.1284596 46.5 0.99334653509 0.115163628047 0.0
36367.8205644 42818.6829066 4.5 -0.831771098024 0.555118762511 2.22988123394e-21
36367.8205644 42818.6829066 13.5 -0.831771098024 0.555118762511 2.22988123394e-21
36367.8205644 42818.6829066 22.5 -0.831771098024 0.555118762511 2.22988123394e-21
36367.8205644 42818.6829066 31.5 -0.831771098024 0.555118762511 2.22988123394e-21
36367.8205644 42818.6829066 40.5 -0.831771098024 0.555118762511 2.22988123394e-21
36367.8205644 42818.6829066 46.5 -0.831771098024 0.555118762511 2.22988123394e-21
36375.0997479 42819.2158847 43.5 0.550210061895 0.8350262797 -0.0
36375.0997479 42819.2158847 34.5 0.550210061895 0.8350262797 -0.0
36375.0997479 42819.2158847 25.5 0.550210061895 0.8350262797 -0.0
36375.0997479 42819.2158847 16.5 0.550210061895 0.8350262797 -0.0
36375.0997479 42819.2158847 7.5 0.550210061895 0.8350262797 -0.0
36375.0997479 42819.2158847 1.5 0.550210061895 0.8350262797 -0.0
36370.8206946 42822.0354106 43.5 0.550210061895 0.8350262797 -0.0
36370.8206946 42822.0354106 34.5 0.550210061895 0.8350262797 -0.0
36370.8206946 42822.0354106 25.5 0.550210061895 0.8350262797 -0.0
36370.8206946 42822.0354106 16.5 0.550210061895 0.8350262797 -0.0
36370.8206946 42822.0354106 7.5 0.550210061895 0.8350262797 -0.0
36370.8206946 42822.0354106 1.5 0.550210061895 0.8350262797 -0.0
36376.3622066 42812.9830287 4.5 0.831779865763 -0.555105625005 -0.0
36376.3622066 42812.9830287 13.5 0.831779865763 -0.555105625005 -0.0
36376.3622066 42812.9830287 22.5 0.831779865763 -0.555105625005 -0.0
36376.3622066 42812.9830287 31.5 0.831779865763 -0.555105625005 -0.0
36376.3622066 42812.9830287 40.5 0.831779865763 -0.555105625005 -0.0
36376.3622066 42812.9830287 46.5 0.831779865763 -0.555105625005 -0.0
36371.366256 42805.49701 4.5 0.831779865763 -0.555105625005 -0.0
36371.366256 42805.49701 13.5 0.831779865763 -0.555105625005 -0.0
36371.366256 42805.49701 22.5 0.831779865763 -0.555105625005 -0.0
36371.366256 42805.49701 31.5 0.831779865763 -0.555105625005 -0.0
36371.366256 42805.49701 40.5 0.831779865763 -0.555105625005 -0.0
36371.366256 42805.49701 46.5 0.831779865763 -0.555105625005 -0.0
36368.2667941 42800.8527228 4.5 0.831779865763 -0.555105625005 -0.0
36368.2667941 42800.8527228 13.5 0.831779865763 -0.555105625005 -0.0
36368.2667941 42800.8527228 22.5 0.831779865763 -0.555105625005 -0.0
36368.2667941 42800.8527228 31.5 0.831779865763 -0.555105625005 -0.0
36368.2667941 42800.8527228 40.5 0.831779865763 -0.555105625005 -0.0
36368.2667941 42800.8527228 46.5 0.831779865763 -0.555105625005 -0.0
36354.2042019 42808.8066032 43.5 -0.550095728245 -0.835101604457 1.19577209662e-17
36354.2042019 42808.8066032 34.5 -0.550095728245 -0.835101604457 1.19577209662e-17
36354.2042019 42808.8066032 25.5 -0.550095728245 -0.835101604457 1.19577209662e-17
36354.2042019 42808.8066032 16.5 -0.550095728245 -0.835101604457 1.19577209662e-17
36354.2042019 42808.8066032 7.5 -0.550095728245 -0.835101604457 1.19577209662e-17
36354.2042019 42808.8066032 1.5 -0.550095728245 -0.835101604457 1.19577209662e-17
36361.7201163 42803.8557417 43.5 -0.550095728245 -0.835101604457 1.19577209662e-17
36361.7201163 42803.8557417 34.5 -0.550095728245 -0.835101604457 1.19577209662e-17
36361.7201163 42803.8557417 25.5 -0.550095728245 -0.835101604457 1.19577209662e-17
36361.7201163 42803.8557417 16.5 -0.550095728245 -0.835101604457 1.19577209662e-17
36361.7201163 42803.8557417 7.5 -0.550095728245 -0.835101604457 1.19577209662e-17
36361.7201163 42803.8557417 1.5 -0.550095728245 -0.835101604457 1.19577209662e-17
36366.5647812 42800.6644779 43.5 -0.550095728245 -0.835101604457 1.19577209662e-17
36366.5647812 42800.6644779 34.5 -0.550095728245 -0.835101604457 1.19577209662e-17
36366.5647812 42800.6644779 25.5 -0.550095728245 -0.835101604457 1.19577209662e-17
36366.5647812 42800.6644779 16.5 -0.550095728245 -0.835101604457 1.19577209662e-17
36366.5647812 42800.6644779 7.5 -0.550095728245 -0.835101604457 1.19577209662e-17
36366.5647812 42800.6644779 1.5 -0.550095728245 -0.835101604457 1.19577209662e-17
36327.0986456 42793.7136861 43.5 0.57801694239 0.816024763294 0.0
36327.0986456 42793.7136861 34.5 0.57801694239 0.816024763294 0.0
36327.0986456 42793.7136861 25.5 0.57801694239 0.816024763294 0.0
36327.0986456 42793.7136861 16.5 0.57801694239 0.816024763294 0.0
36327.0986456 42793.7136861 7.5 0.57801694239 0.816024763294 0.0
36327.0986456 42793.7136861 1.5 0.57801694239 0.816024763294 0.0
36331.2274655 42790.7891084 43.5 0.57801694239 0.816024763294 0.0
36331.2274655 42790.7891084 34.5 0.57801694239 0.816024763294 0.0
36331.2274655 42790.7891084 25.5 0.57801694239 0.816024763294 0.0
36331.2274655 42790.7891084 16.5 0.57801694239 0.816024763294 0.0
36331.2274655 42790.7891084 7.5 0.57801694239 0.816024763294 0.0
36331.2274655 42790.7891084 1.5 0.57801694239 0.816024763294 0.0
36334.2937847 42794.1193902 4.5 -0.812469648472 0.583003490823 1.54037368826e-21
36334.2937847 42794.1193902 13.5 -0.812469648472 0.583003490823 1.54037368826e-21
36334.2937847 42794.1193902 22.5 -0.812469648472 0.583003490823 1.54037368826e-21
36334.2937847 42794.1193902 31.5 -0.812469648472 0.583003490823 1.54037368826e-21
36334.2937847 42794.1193902 40.5 -0.812469648472 0.583003490823 1.54037368826e-21
36334.2937847 42794.1193902 46.5 -0.812469648472 0.583003490823 1.54037368826e-21
36337.0034883 42797.8956144 4.5 -0.812469648472 0.583003490823 1.54037368826e-21
36337.0034883 42797.8956144 13.5 -0.812469648472 0.583003490823 1.54037368826e-21
36337.0034883 42797.8956144 22.5 -0.812469648472 0.583003490823 1.54037368826e-21
36337.0034883 42797.8956144 31.5 -0.812469648472 0.583003490823 1.54037368826e-21
36337.0034883 42797.8956144 40.5 -0.812469648472 0.583003490823 1.54037368826e-21
36337.0034883 42797.8956144 46.5 -0.812469648472 0.583003490823 1.54037368826e-21
36344.4360336 42792.8323119 43.5 0.577418298568 0.816448472642 -0.0
36344.4360336 42792.8323119 34.5 0.577418298568 0.816448472642 -0.0
36344.4360336 42792.8323119 25.5 0.577418298568 0.816448472642 -0.0
36344.4360336 42792.8323119 16.5 0.577418298568 0.816448472642 -0.0
36344.4360336 42792.8323119 7.5 0.577418298568 0.816448472642 -0.0
36344.4360336 42792.8323119 1.5 0.577418298568 0.816448472642 -0.0
36338.9327952 42796.7243769 43.5 0.577418298568 0.816448472642 -0.0
36338.9327952 42796.7243769 34.5 0.577418298568 0.816448472642 -0.0
36338.9327952 42796.7243769 25.5 0.577418298568 0.816448472642 -0.0
36338.9327952 42796.7243769 16.5 0.577418298568 0.816448472642 -0.0
36338.9327952 42796.7243769 7.5 0.577418298568 0.816448472642 -0.0
36338.9327952 42796.7243769 1.5 0.577418298568 0.816448472642 -0.0
36349.2868562 42791.8957765 4.5 -0.813270369846 0.581885990148 -0.0
36349.2868562 42791.8957765 13.5 -0.813270369846 0.581885990148 -0.0
36349.2868562 42791.8957765 22.5 -0.813270369846 0.581885990148 -0.0
36349.2868562 42791.8957765 31.5 -0.813270369846 0.581885990148 -0.0
36349.2868562 42791.8957765 40.5 -0.813270369846 0.581885990148 -0.0
36349.2868562 42791.8957765 46.5 -0.813270369846 0.581885990148 -0.0
36354.3612661 42790.828996 43.5 0.576922802242 0.816798677921 -0.0
36354.3612661 42790.828996 34.5 0.576922802242 0.816798677921 -0.0
36354.3612661 42790.828996 25.5 0.576922802242 0.816798677921 -0.0
36354.3612661 42790.828996 16.5 0.576922802242 0.816798677921 -0.0
36354.3612661 42790.828996 7.5 0.576922802242 0.816798677921 -0.0
36354.3612661 42790.828996 1.5 0.576922802242 0.816798677921 -0.0
36350.5885708 42793.4937333 43.5 0.576922802242 0.816798677921 -0.0
36350.5885708 42793.4937333 34.5 0.576922802242 0.816798677921 -0.0
36350.5885708 42793.4937333 25.5 0.576922802242 0.816798677921 -0.0
36350.5885708 42793.4937333 16.5 0.576922802242 0.816798677921 -0.0
36350.5885708 42793.4937333 7.5 0.576922802242 0.816798677921 -0.0
36350.5885708 42793.4937333 1.5 0.576922802242 0.816798677921 -0.0
36355.416103 42784.5624441 4.5 0.812533813766 -0.582914060121 -0.0
36355.416103 42784.5624441 13.5 0.812533813766 -0.582914060121 -0.0
36355.416103 42784.5624441 22.5 0.812533813766 -0.582914060121 -0.0
36355.416103 42784.5624441 31.5 0.812533813766 -0.582914060121 -0.0
36355.416103 42784.5624441 40.5 0.812533813766 -0.582914060121 -0.0
36355.416103 42784.5624441 46.5 0.812533813766 -0.582914060121 -0.0
36350.1698764 42777.2496398 4.5 0.812533813766 -0.582914060121 -0.0
36350.1698764 42777.2496398 13.5 0.812533813766 -0.582914060121 -0.0
36350.1698764 42777.2496398 22.5 0.812533813766 -0.582914060121 -0.0
36350.1698764 42777.2496398 31.5 0.812533813766 -0.582914060121 -0.0
36350.1698764 42777.2496398 40.5 0.812533813766 -0.582914060121 -0.0
36350.1698764 42777.2496398 46.5 0.812533813766 -0.582914060121 -0.0
36346.4109982 42772.0100755 4.5 0.812533813766 -0.582914060121 -0.0
36346.4109982 42772.0100755 13.5 0.812533813766 -0.582914060121 -0.0
36346.4109982 42772.0100755 22.5 0.812533813766 -0.582914060121 -0.0
36346.4109982 42772.0100755 31.5 0.812533813766 -0.582914060121 -0.0
36346.4109982 42772.0100755 40.5 0.812533813766 -0.582914060121 -0.0
36346.4109982 42772.0100755 46.5 0.812533813766 -0.582914060121 -0.0
36339.7876612 42774.2949102 43.5 -0.577336456947 -0.816506347483 -0.0
36339.7876612 42774.2949102 34.5 -0.577336456947 -0.816506347483 -0.0
36339.7876612 42774.2949102 25.5 -0.577336456947 -0.816506347483 -0.0
36339.7876612 42774.2949102 16.5 -0.577336456947 -0.816506347483 -0.0
36339.7876612 42774.2949102 7.5 -0.577336456947 -0.816506347483 -0.0
36339.7876612 42774.2949102 1.5 -0.577336456947 -0.816506347483 -0.0
36344.3616371 42771.0607368 43.5 -0.577336456947 -0.816506347483 -0.0
36344.3616371 42771.0607368 34.5 -0.577336456947 -0.816506347483 -0.0
36344.3616371 42771.0607368 25.5 -0.577336456947 -0.816506347483 -0.0
36344.3616371 42771.0607368 16.5 -0.577336456947 -0.816506347483 -0.0
36344.3616371 42771.0607368 7.5 -0.577336456947 -0.816506347483 -0.0
36344.3616371 42771.0607368 1.5 -0.577336456947 -0.816506347483 -0.0
36338.1085307 42779.6934702 4.5 -0.81275204649 0.582609741531 0.0
36338.1085307 42779.6934702 13.5 -0.81275204649 0.582609741531 0.0
36338.1085307 42779.6934702 22.5 -0.81275204649 0.582609741531 0.0
36338.1085307 42779.6934702 31.5 -0.81275204649 0.582609741531 0.0
36338.1085307 42779.6934702 40.5 -0.81275204649 0.582609741531 0.0
36338.1085307 42779.6934702 46.5 -0.81275204649 0.582609741531 0.0
36331.1237218 42781.7409781 43.5 0.0801807573839 -0.996780339967 -0.0
36331.1237218 42781.7409781 34.5 0.0801807573839 -0.996780339967 -0.0
36331.1237218 42781.7409781 25.5 0.0801807573839 -0.996780339967 -0.0
36331.1237218 42781.7409781 16.5 0.0801807573839 -0.996780339967 -0.0
36331.1237218 42781.7409781 7.5 0.0801807573839 -0.996780339967 -0.0
36331.1237218 42781.7409781 1.5 0.0801807573839 -0.996780339967 -0.0
36337.8620978 42782.2830114 43.5 0.0801807573839 -0.996780339967 -0.0
36337.8620978 42782.2830114 34.5 0.0801807573839 -0.996780339967 -0.0
36337.8620978 42782.2830114 25.5 0.0801807573839 -0.996780339967 -0.0
36337.8620978 42782.2830114 16.5 0.0801807573839 -0.996780339967 -0.0
36337.8620978 42782.2830114 7.5 0.0801807573839 -0.996780339967 -0.0
36337.8620978 42782.2830114 1.5 0.0801807573839 -0.996780339967 -0.0
36330.2823267 42778.8275469 43.5 0.576974142684 0.816762412623 0.0
36330.2823267 42778.8275469 34.5 0.576974142684 0.816762412623 0.0
36330.2823267 42778.8275469 25.5 0.576974142684 0.816762412623 0.0
36330.2823267 42778.8275469 16.5 0.576974142684 0.816762412623 0.0
36330.2823267 42778.8275469 7.5 0.576974142684 0.816762412623 0.0
36330.2823267 42778.8275469 1.5 0.576974142684 0.816762412623 0.0
36331.3009586 42772.5862227 4.5 0.812572172624 -0.582860587342 -0.0
36331.3009586 42772.5862227 13.5 0.812572172624 -0.582860587342 -0.0
36331.3009586 42772.5862227 22.5 0.812572172624 -0.582860587342 -0.0
36331.3009586 42772.5862227 31.5 0.812572172624 -0.582860587342 -0.0
36331.3009586 42772.5862227 40.5 0.812572172624 -0.582860587342 -0.0
36331.3009586 42772.5862227 46.5 0.812572172624 -0.582860587342 -0.0
36328.3186152 42768.4285059 4.5 0.812572172624 -0.582860587342 -0.0
36328.3186152 42768.4285059 13.5 0.812572172624 -0.582860587342 -0.0
36328.3186152 42768.4285059 22.5 0.812572172624 -0.582860587342 -0.0
36328.3186152 42768.4285059 31.5 0.812572172624 -0.582860587342 -0.0
36328.3186152 42768.4285059 40.5 0.812572172624 -0.582860587342 -0.0
36328.3186152 42768.4285059 46.5 0.812572172624 -0.582860587342 -0.0
36315.1146974 42777.0022592 43.5 -0.57754809892 -0.816356658228 1.03344929731e-20
36315.1146974 42777.0022592 34.5 -0.57754809892 -0.816356658228 1.03344929731e-20
36315.1146974 42777.0022592 25.5 -0.57754809892 -0.816356658228 1.03344929731e-20
36315.1146974 42777.0022592 16.5 -0.57754809892 -0.816356658228 1.03344929731e-20
36315.1146974 42777.0022592 7.5 -0.57754809892 -0.816356658228 1.03344929731e-20
36315.1146974 42777.0022592 1.5 -0.57754809892 -0.816356658228 1.03344929731e-20
36322.4619073 42771.8043263 43.5 -0.57754809892 -0.816356658228 1.03344929731e-20
36322.4619073 42771.8043263 34.5 -0.57754809892 -0.816356658228 1.03344929731e-20
36322.4619073 42771.8043263 25.5 -0.57754809892 -0.816356658228 1.03344929731e-20
36322.4619073 42771.8043263 16.5 -0.57754809892 -0.816356658228 1.03344929731e-20
36322.4619073 42771.8043263 7.5 -0.57754809892 -0.816356658228 1.03344929731e-20
36322.4619073 42771.8043263 1.5 -0.57754809892 -0.816356658228 1.03344929731e-20
36327.0403777 42768.5651944 43.5 -0.57754809892 -0.816356658228 1.03344929731e-20
36327.0403777 42768.5651944 34.5 -0.57754809892 -0.816356658228 1.03344929731e-20
36327.0403777 42768.5651944 25.5 -0.57754809892 -0.816356658228 1.03344929731e-20
36327.0403777 42768.5651944 16.5 -0.57754809892 -0.816356658228 1.03344929731e-20
36327.0403777 42768.5651944 7.5 -0.57754809892 -0.816356658228 1.03344929731e-20
36327.0403777 42768.5651944 1.5 -0.57754809892 -0.816356658228 1.03344929731e-20
36314.0611691 42783.2721108 4.5 -0.812643104417 0.582761687865 7.4743784373e-21
36314.0611691 42783.2721108 13.5 -0.812643104417 0.582761687865 7.4743784373e-21
36314.0611691 42783.2721108 22.5 -0.812643104417 0.582761687865 7.4743784373e-21
36314.0611691 42783.2721108 31.5 -0.812643104417 0.582761687865 7.4743784373e-21
36314.0611691 42783.2721108 40.5 -0.812643104417 0.582761687865 7.4743784373e-21
36314.0611691 42783.2721108 46.5 -0.812643104417 0.582761687865 7.4743784373e-21
36319.3060243 42790.5858987 4.5 -0.812643104417 0.582761687865 7.4743784373e-21
36319.3060243 42790.5858987 13.5 -0.812643104417 0.582761687865 7.4743784373e-21
36319.3060243 42790.5858987 22.5 -0.812643104417 0.582761687865 7.4743784373e-21
36319.3060243 42790.5858987 31.5 -0.812643104417 0.582761687865 7.4743784373e-21
36319.3060243 42790.5858987 40.5 -0.812643104417 0.582761687865 7.4743784373e-21
36319.3060243 42790.5858987 46.5 -0.812643104417 0.582761687865 7.4743784373e-21
36322.6705397 42795.2776112 4.5 -0.812643104417 0.582761687865 7.4743784373e-21
36322.6705397 42795.2776112 13.5 -0.812643104417 0.582761687865 7.4743784373e-21
36322.6705397 42795.2776112 22.5 -0.812643104417 0.582761687865 7.4743784373e-21
36322.6705397 42795.2776112 31.5 -0.812643104417 0.582761687865 7.4743784373e-21
36322.6705397 42795.2776112 40.5 -0.812643104417 0.582761687865 7.4743784373e-21
36322.6705397 42795.2776112 46.5 -0.812643104417 0.582761687865 7.4743784373e-21
36312.5731928 42815.4494192 4.5 0.804083628848 -0.594516204841 -0.0
36312.5731928 42815.4494192 13.5 0.804083628848 -0.594516204841 -0.0
36312.5731928 42815.4494192 22.5 0.804083628848 -0.594516204841 -0.0
36312.5731928 42815.4494192 31.5 0.804083628848 -0.594516204841 -0.0
36312.5731928 42815.4494192 39.0 0.804083628848 -0.594516204841 -0.0
36309.5685894 42811.3856907 4.5 0.804083628848 -0.594516204841 -0.0
36309.5685894 42811.3856907 13.5 0.804083628848 -0.594516204841 -0.0
36309.5685894 42811.3856907 22.5 0.804083628848 -0.594516204841 -0.0
36309.5685894 42811.3856907 31.5 0.804083628848 -0.594516204841 -0.0
36309.5685894 42811.3856907 39.0 0.804083628848 -0.594516204841 -0.0
36313.1239537 42808.120935 37.5 0.589078249733 0.808075996235 -0.0
36313.1239537 42808.120935 28.5 0.589078249733 0.808075996235 -0.0
36313.1239537 42808.120935 19.5 0.589078249733 0.808075996235 -0.0
36313.1239537 42808.120935 10.5 0.589078249733 0.808075996235 -0.0
36313.1239537 42808.120935 3.0 0.589078249733 0.808075996235 -0.0
36309.3623852 42810.8630758 37.5 0.589078249733 0.808075996235 -0.0
36309.3623852 42810.8630758 28.5 0.589078249733 0.808075996235 -0.0
36309.3623852 42810.8630758 19.5 0.589078249733 0.808075996235 -0.0
36309.3623852 42810.8630758 10.5 0.589078249733 0.808075996235 -0.0
36309.3623852 42810.8630758 3.0 0.589078249733 0.808075996235 -0.0
36314.0884027 42801.8367391 4.5 0.80429349402 -0.594232257184 -0.0
36314.0884027 42801.8367391 13.5 0.80429349402 -0.594232257184 -0.0
36314.0884027 42801.8367391 22.5 0.80429349402 -0.594232257184 -0.0
36314.0884027 42801.8367391 31.5 0.80429349402 -0.594232257184 -0.0
36314.0884027 42801.8367391 39.0 0.80429349402 -0.594232257184 -0.0
36310.0933928 42796.4294923 4.5 0.80429349402 -0.594232257184 -0.0
36310.0933928 42796.4294923 13.5 0.80429349402 -0.594232257184 -0.0
36310.0933928 42796.4294923 22.5 0.80429349402 -0.594232257184 -0.0
36310.0933928 42796.4294923 31.5 0.80429349402 -0.594232257184 -0.0
36310.0933928 42796.4294923 39.0 0.80429349402 -0.594232257184 -0.0
36310.4284884 42793.444841 37.5 0.589691922623 0.8076282786 -0.0
36310.4284884 42793.444841 28.5 0.589691922623 0.8076282786 -0.0
36310.4284884 42793.444841 19.5 0.589691922623 0.8076282786 -0.0
36310.4284884 42793.444841 10.5 0.589691922623 0.8076282786 -0.0
36310.4284884 42793.444841 3.0 0.589691922623 0.8076282786 -0.0
36309.2882467 42788.4303881 4.5 0.804224990623 -0.594324965366 0.0
36309.2882467 42788.4303881 13.5 0.804224990623 -0.594324965366 0.0
36309.2882467 42788.4303881 22.5 0.804224990623 -0.594324965366 0.0
36309.2882467 42788.4303881 31.5 0.804224990623 -0.594324965366 0.0
36309.2882467 42788.4303881 39.0 0.804224990623 -0.594324965366 0.0
36312.0257745 42792.1347392 4.5 0.804224990623 -0.594324965366 0.0
36312.0257745 42792.1347392 13.5 0.804224990623 -0.594324965366 0.0
36312.0257745 42792.1347392 22.5 0.804224990623 -0.594324965366 0.0
36312.0257745 42792.1347392 31.5 0.804224990623 -0.594324965366 0.0
36312.0257745 42792.1347392 39.0 0.804224990623 -0.594324965366 0.0
36292.5076682 42795.083789 37.5 -0.589134746 -0.808034808072 7.32779107826e-22
36292.5076682 42795.083789 28.5 -0.589134746 -0.808034808072 7.32779107826e-22
36292.5076682 42795.083789 19.5 -0.589134746 -0.808034808072 7.32779107826e-22
36292.5076682 42795.083789 10.5 -0.589134746 -0.808034808072 7.32779107826e-22
36292.5076682 42795.083789 3.0 -0.589134746 -0.808034808072 7.32779107826e-22
36299.7799815 42789.7815763 37.5 -0.589134746 -0.808034808072 7.32779107826e-22
36299.7799815 42789.7815763 28.5 -0.589134746 -0.808034808072 7.32779107826e-22
36299.7799815 42789.7815763 19.5 -0.589134746 -0.808034808072 7.32779107826e-22
36299.7799815 42789.7815763 10.5 -0.589134746 -0.808034808072 7.32779107826e-22
36299.7799815 42789.7815763 3.0 -0.589134746 -0.808034808072 7.32779107826e-22
36305.0079944 42785.9698542 37.5 -0.589134746 -0.808034808072 7.32779107826e-22
36305.0079944 42785.9698542 28.5 -0.589134746 -0.808034808072 7.32779107826e-22
36305.0079944 42785.9698542 19.5 -0.589134746 -0.808034808072 7.32779107826e-22
36305.0079944 42785.9698542 10.5 -0.589134746 -0.808034808072 7.32779107826e-22
36305.0079944 42785.9698542 3.0 -0.589134746 -0.808034808072 7.32779107826e-22
36291.5437971 42801.3679504 4.5 -0.804229230952 0.594319227421 -0.0
36291.5437971 42801.3679504 13.5 -0.804229230952 0.594319227421 -0.0
36291.5437971 42801.3679504 22.5 -0.804229230952 0.594319227421 -0.0
36291.5437971 42801.3679504 31.5 -0.804229230952 0.594319227421 -0.0
36291.5437971 42801.3679504 39.0 -0.804229230952 0.594319227421 -0.0
36294.8655536 42805.8629314 4.5 -0.804229230952 0.594319227421 -0.0
36294.8655536 42805.8629314 13.5 -0.804229230952 0.594319227421 -0.0
36294.8655536 42805.8629314 22.5 -0.804229230952 0.594319227421 -0.0
36294.8655536 42805.8629314 31.5 -0.804229230952 0.594319227421 -0.0
36294.8655536 42805.8629314 39.0 -0.804229230952 0.594319227421 -0.0
36298.3034659 42804.7175848 37.5 0.588941490768 0.808175674252 0.0
36298.3034659 42804.7175848 28.5 0.588941490768 0.808175674252 0.0
36298.3034659 42804.7175848 19.5 0.588941490768 0.808175674252 0.0
36298.3034659 42804.7175848 10.5 0.588941490768 0.808175674252 0.0
36298.3034659 42804.7175848 3.0 0.588941490768 0.808175674252 0.0
36300.7621215 42807.1752425 4.5 -0.997743442426 -0.0671418133185 -0.0
36300.7621215 42807.1752425 13.5 -0.997743442426 -0.0671418133185 -0.0
36300.7621215 42807.1752425 22.5 -0.997743442426 -0.0671418133185 -0.0
36300.7621215 42807.1752425 31.5 -0.997743442426 -0.0671418133185 -0.0
36300.7621215 42807.1752425 39.0 -0.997743442426 -0.0671418133185 -0.0
36300.3111979 42813.8760753 4.5 -0.997743442426 -0.0671418133185 -0.0
36300.3111979 42813.8760753 13.5 -0.997743442426 -0.0671418133185 -0.0
36300.3111979 42813.8760753 22.5 -0.997743442426 -0.0671418133185 -0.0
36300.3111979 42813.8760753 31.5 -0.997743442426 -0.0671418133185 -0.0
36300.3111979 42813.8760753 39.0 -0.997743442426 -0.0671418133185 -0.0
36297.5374899 42812.5101278 4.5 0.803851401208 -0.594830164648 0.0
36297.5374899 42812.5101278 13.5 0.803851401208 -0.594830164648 0.0
36297.5374899 42812.5101278 22.5 0.803851401208 -0.594830164648 0.0
36297.5374899 42812.5101278 31.5 0.803851401208 -0.594830164648 0.0
36297.5374899 42812.5101278 39.0 0.803851401208 -0.594830164648 0.0
36290.2368153 42812.3222812 37.5 -0.589153376142 -0.808021224585 -3.81223806609e-18
36290.2368153 42812.3222812 28.5 -0.589153376142 -0.808021224585 -3.81223806609e-18
36290.2368153 42812.3222812 19.5 -0.589153376142 -0.808021224585 -3.81223806609e-18
36290.2368153 42812.3222812 10.5 -0.589153376142 -0.808021224585 -3.81223806609e-18
36290.2368153 42812.3222812 3.0 -0.589153376142 -0.808021224585 -3.81223806609e-18
36294.376766 42809.3037145 37.5 -0.589153376142 -0.808021224585 -3.81223806609e-18
36294.376766 42809.3037145 28.5 -0.589153376142 -0.808021224585 -3.81223806609e-18
36294.376766 42809.3037145 19.5 -0.589153376142 -0.808021224585 -3.81223806609e-18
36294.376766 42809.3037145 10.5 -0.589153376142 -0.808021224585 -3.81223806609e-18
36294.376766 42809.3037145 3.0 -0.589153376142 -0.808021224585 -3.81223806609e-18
36295.9190788 42827.5911033 4.5 -0.804029777344 0.594589032142 0.0
36295.9190788 42827.5911033 13.5 -0.804029777344 0.594589032142 0.0
36295.9190788 42827.5911033 22.5 -0.804029777344 0.594589032142 0.0
36295.9190788 42827.5911033 31.5 -0.804029777344 0.594589032142 0.0
36295.9190788 42827.5911033 39.0 -0.804029777344 0.594589032142 0.0
36290.5677775 42820.3548353 4.5 -0.804029777344 0.594589032142 0.0
36290.5677775 42820.3548353 13.5 -0.804029777344 0.594589032142 0.0
36290.5677775 42820.3548353 22.5 -0.804029777344 0.594589032142 0.0
36290.5677775 42820.3548353 31.5 -0.804029777344 0.594589032142 0.0
36290.5677775 42820.3548353 39.0 -0.804029777344 0.594589032142 0.0
36287.2453489 42815.8620994 4.5 -0.804029777344 0.594589032142 0.0
36287.2453489 42815.8620994 13.5 -0.804029777344 0.594589032142 0.0
36287.2453489 42815.8620994 22.5 -0.804029777344 0.594589032142 0.0
36287.2453489 42815.8620994 31.5 -0.804029777344 0.594589032142 0.0
36287.2453489 42815.8620994 39.0 -0.804029777344 0.594589032142 0.0
36311.6101126 42821.732795 37.5 0.589105270861 0.808056297447 -0.0
36311.6101126 42821.732795 28.5 0.589105270861 0.808056297447 -0.0
36311.6101126 42821.732795 19.5 0.589105270861 0.808056297447 -0.0
